2269.221	127.5938	299.9	3387.69
2269.221	129.625	286.95	3387.69
2269.221	131.7031	275.45	3387.69
2269.222	133.6875	265.475	3387.69
2269.222	135.75	256.6	3387.69
2269.222	139.7969	240.625	3387.69
2269.222	141.8281	234.075	3387.69
2269.223	143.8281	227.575	3387.69
2269.223	145.875	222.15	3387.69
2269.223	147.875	217.25	3387.69
2269.224	149.9219	212.8	3387.69
2269.224	151.9531	208.625	3387.69
2269.224	153.9375	204.9	3387.69
2269.224	155.9219	201.5	3387.69
2269.225	157.9375	198.275	3387.69
2269.225	159.9219	195.775	3387.69
2269.225	163.9531	191.3	3387.69
2269.226	166.0	189.625	3387.69
2269.226	167.9688	188.025	3387.69
2269.226	170.0312	186.8	3387.69
2269.226	172.0	185.925	3387.69
2269.227	174.0469	185.2	3387.69
2269.227	176.0312	184.675	3387.69
2269.227	178.0469	184.525	3387.69
2269.227	180.125	184.25	3387.69
2269.228	182.0781	184.725	3387.69
2269.228	184.125	184.725	3387.69
2269.228	188.1406	186.35	3387.69
2269.229	190.125	187.55	3387.69
2269.229	192.125	188.65	3387.69
2269.229	194.125	190.2	3387.69
2269.229	196.1562	192.125	3387.69
2269.23	198.1562	194.3	3387.69
2269.23	200.1562	196.6	3387.69
2269.23	202.1406	199.25	3387.69
2269.231	204.0625	202.125	3387.69
2269.231	206.0469	205.45	3387.69
2269.231	207.9844	209.175	3387.69
2269.231	212.0	217.825	3387.69
2269.232	213.9844	223.275	3387.69
2269.232	215.9531	228.75	3387.69
2269.232	218.7969	0.0	3387.69
2269.232	220.875	93.25	3387.69
2269.233	222.9531	90.475	3387.69
2269.233	224.8594	0.0	3387.69
2269.233	226.7188	103.625	3387.69
2269.234	228.7656	106.925	3387.69
2269.234	230.6406	109.775	3387.69
2269.234	231.9219	0.0	3387.69
2269.235	235.8906	284.675	3387.69
2269.235	237.8906	299.675	3387.69
2269.235	239.875	313.05	3387.69
2269.235	241.8281	325.0	3387.69
2269.236	243.8281	321.1	3387.69
2269.236	245.8438	315.775	3387.69
2269.236	247.8594	313.875	3387.69
2269.236	249.8438	318.45	3387.69
2269.237	252.0469	0.0	3387.69
2269.237	261.4062	0.0	3387.69
2269.237	263.4219	0.0	3387.69
2269.238	259.9688	300.125	3387.69
2269.238	261.9844	300.95	3387.69
2269.238	264.0156	295.25	3387.69
2269.238	265.6719	787.375	3387.69
2269.239	267.7188	776.4	3387.69
2269.239	269.7344	767.15	3387.69
2269.239	271.7188	756.675	3387.69
2269.239	274.0781	294.875	3387.69
2269.24	275.7969	0.0	3387.69
2269.24	277.8125	795.7	3387.69
2269.24	279.8281	796.425	3387.69
2269.241	283.8594	783.0	3387.69
2269.241	285.8594	781.225	3387.69
2269.241	287.875	780.95	3387.69
2269.241	289.9062	778.05	3387.69
2269.242	292.1875	309.35	3387.69
2269.242	294.2344	299.775	3387.69
2269.242	296.25	291.0	3387.69
2269.242	298.2812	282.625	3387.69
2269.243	300.2969	275.3	3387.69
2269.243	302.3125	268.6	3387.69
2269.243	304.3594	262.6	3387.69
2269.244	308.3125	278.925	3387.69
2269.244	310.3438	269.925	3387.69
2269.244	312.4062	259.55	3387.69
2269.244	314.4219	249.975	3387.69
2269.245	316.4531	241.425	3387.69
2269.245	318.5156	233.6	3387.69
2269.245	320.5156	226.575	3387.69
2269.246	322.5781	220.175	3387.69
2269.246	324.5156	214.625	3387.69
2269.246	326.5312	209.425	3387.69
2269.246	328.5938	204.6	3387.69
2269.25	356.6875	175.775	3387.69
2269.25	358.6562	175.45	3387.69
2269.25	0.6875	175.525	3387.69
2269.251	2.7031	175.65	3387.69
2269.251	4.7188	176.025	3387.69
2269.251	6.6562	176.6	3387.69
2269.251	8.7188	177.6	3387.69
2269.252	10.6562	178.675	3387.69
2269.252	12.7031	179.875	3387.69
2269.252	14.7656	181.5	3387.69
2269.252	23.8438	0.0	3387.69
2269.253	27.8594	0.0	3387.69
2269.253	29.8594	0.0	3387.69
2269.253	31.875	0.0	3387.69
2269.254	33.9219	0.0	3387.69
2269.254	35.875	0.0	3387.69
2269.254	37.8906	0.0	3387.69
2269.254	32.8594	0.0	3387.69
2269.255	41.8906	0.0	3387.69
2269.255	36.6562	198.375	3387.69
2269.255	38.6719	189.4	3387.69
2269.256	40.7188	187.275	3387.69
2269.256	44.7188	189.8	3387.69
2269.256	46.6094	203.25	3387.69
2269.257	48.5781	211.275	3387.69
2269.257	50.5781	220.525	3387.69
2269.257	52.5469	230.875	3387.69
2269.257	54.5312	238.55	3387.69
2269.258	56.4844	251.3	3387.69
2269.258	58.4531	265.4	3387.69
2269.258	60.4219	281.525	3387.69
2269.258	62.375	329.075	3387.69
2269.259	64.3125	361.45	3387.69
2269.259	68.2812	426.025	3387.69
2269.259	77.8906	0.0	3387.69
2269.26	72.2031	492.525	3387.69
2269.26	74.1719	587.7	3387.69
2269.26	76.125	0.0	3387.69
2269.26	78.0781	0.0	3387.69
2269.261	80.1094	901.975	3387.69
2269.261	82.2969	838.0	3387.69
2269.261	84.2969	843.85	3387.69
2269.261	86.2812	849.025	3387.69
2269.262	88.3125	831.625	3387.69
2269.262	92.3594	830.7	3387.69
2269.262	94.375	0.0	3387.69
2269.263	96.4062	741.85	3387.69
2269.263	98.4219	733.675	3387.69
2269.263	100.4219	733.55	3387.69
2269.264	102.4531	735.725	3387.69
2269.264	104.4688	656.95	3387.69
2269.264	106.4531	643.6	3387.69
2269.264	108.4844	571.55	3387.69
2269.264	110.5312	518.65	3387.69
2269.265	112.5469	472.725	3387.69
2269.265	116.6094	405.55	3387.69
2269.266	118.6562	379.175	3387.69
2269.266	120.6719	356.725	3387.69
2269.266	122.7188	337.225	3387.69
2269.266	124.7344	320.3	3387.69
2269.267	126.7812	305.25	3387.69
2269.267	128.8281	292.05	3387.69
2269.267	130.8594	280.125	3387.69
2269.267	132.8906	269.4	3387.69
2269.268	134.9375	260.1	3387.69
2269.268	136.9531	251.35	3387.69
2269.268	141.0312	236.575	3387.69
2269.269	143.0469	230.225	3387.69
2269.269	145.0625	224.2	3387.69
2269.269	147.1094	219.075	3387.69
2269.269	149.1094	214.475	3387.69
2269.27	151.1562	210.25	3387.69
2269.27	153.1875	206.225	3387.69
2269.27	155.0938	202.825	3387.69
2269.27	157.1406	199.525	3387.69
2269.271	159.1719	196.925	3387.69
2269.271	161.2031	194.375	3387.69
2269.271	165.2031	190.3	3387.69
2269.272	167.1875	188.65	3387.69
2269.272	169.1875	187.175	3387.69
2269.272	171.2031	186.175	3387.69
2269.272	173.2031	185.425	3387.69
2269.273	175.2188	184.85	3387.69
2269.273	177.2188	184.525	3387.69
2269.273	179.2812	184.375	3387.69
2269.273	181.3125	184.475	3387.69
2269.274	183.3281	184.65	3387.69
2269.274	185.3125	185.15	3387.69
2269.274	189.375	187.0	3387.69
2269.275	191.375	188.075	3387.69
2269.275	193.375	189.625	3387.69
2269.275	195.3594	191.225	3387.69
2269.276	197.3594	193.175	3387.69
2269.276	199.3906	195.625	3387.69
2269.276	201.375	198.15	3387.69
2269.276	203.2969	200.825	3387.69
2269.277	205.25	204.1	3387.69
2269.277	207.2344	207.95	3387.69
2269.277	209.2344	211.9	3387.69
2269.277	213.2344	221.1	3387.69
2269.278	215.1719	226.55	3387.69
2269.278	217.2031	233.0	3387.69
2269.278	220.1094	94.8	3387.69
2269.279	222.0938	91.025	3387.69
2269.279	224.1094	89.625	3387.69
2269.279	225.9688	102.025	3387.69
2269.279	228.0	106.15	3387.69
2269.28	229.9844	107.775	3387.69
2269.28	238.5312	0.0	3387.69
2269.28	233.1094	273.85	3387.69
2269.281	237.0938	288.825	3387.69
2269.281	239.0781	307.55	3387.69
2269.281	241.0625	319.65	3387.69
2269.281	243.0469	322.775	3387.69
2269.282	245.0938	317.675	3387.69
2269.282	247.0781	313.1	3387.69
2269.282	249.0625	316.975	3387.69
2269.282	251.1562	306.35	3387.69
2269.283	260.6562	0.0	3387.69
2269.283	262.6719	0.0	3387.69
2269.283	264.6875	0.0	3387.69
2269.284	261.2656	295.975	3387.69
2269.284	263.2188	298.525	3387.69
2269.284	272.75	0.0	3387.69
2269.284	266.9219	782.225	3387.69
2269.285	268.9688	769.875	3387.69
2269.285	270.9688	760.75	3387.69
2269.285	273.2812	0.0	3387.69
2269.286	282.8594	0.0	3387.69
2269.286	277.0312	797.6	3387.69
2269.286	279.0781	786.225	3387.69
2269.286	281.0625	796.775	3387.69
2269.287	285.0938	782.325	3387.69
2269.287	287.1094	781.35	3387.69
2269.287	289.1406	780.55	3387.69
2269.288	291.4531	0.0	3387.69
2269.288	293.4688	303.025	3387.69
2269.288	295.4688	293.875	3387.69
2269.288	297.5	285.55	3387.69
2269.289	299.5469	278.15	3387.69
2269.289	301.5938	271.15	3387.69
2269.289	303.5781	264.75	3387.69
2269.289	305.5938	259.0	3387.69
2269.29	309.5781	273.95	3387.69
2269.29	311.625	263.5	3387.69
2269.29	313.6875	253.475	3387.69
2269.291	315.6875	244.225	3387.69
2269.291	317.7344	236.275	3387.69
2269.291	319.7656	229.1	3387.69
2269.291	321.8125	222.575	3387.69
2269.292	323.7656	216.6	3387.69
2269.292	325.7969	211.175	3387.69
2269.292	327.8281	206.05	3387.69
2269.292	329.8594	201.95	3387.69
2269.296	355.9219	175.9	3387.69
2269.296	357.9531	175.475	3387.69
2269.296	359.9375	175.55	3387.69
2269.296	1.9688	175.425	3387.69
2269.297	3.9219	175.9	3387.69
2269.297	6.0	176.375	3387.69
2269.297	7.9531	177.275	3387.69
2269.298	9.9688	178.3	3387.69
2269.298	11.9531	179.525	3387.69
2269.298	13.9688	180.925	3387.69
2269.298	23.1094	0.0	3387.69
2269.299	20.1875	0.0	3387.69
2269.299	29.1094	0.0	3387.69
2269.299	31.1094	0.0	3387.69
2269.299	33.125	0.0	3387.69
2269.3	35.125	0.0	3387.69
2269.3	37.125	0.0	3387.69
2269.3	39.1406	0.0	3387.69
2269.301	34.1094	161.7	3387.69
2269.301	35.9219	201.275	3387.69
2269.301	37.9688	192.35	3387.69
2269.301	39.9375	185.55	3387.69
2269.302	51.125	0.0	3387.69
2269.302	45.9219	200.375	3387.69
2269.302	47.8594	208.225	3387.69
2269.303	49.8125	216.8	3387.69
2269.303	51.8125	227.175	3387.69
2269.303	53.7969	236.65	3387.69
2269.303	55.7656	246.55	3387.69
2269.304	57.7188	260.5	3387.69
2269.304	59.7188	275.75	3387.69
2269.304	61.6406	0.0	3387.69
2269.304	63.6094	354.375	3387.69
2269.305	67.5469	427.325	3387.69
2269.305	77.1719	0.0	3387.69
2269.305	71.5156	486.95	3387.69
2269.306	73.4688	0.0	3387.69
2269.306	75.4531	639.625	3387.69
2269.306	77.3906	843.7	3387.69
2269.306	79.3906	902.175	3387.69
2269.307	81.4219	833.7	3387.69
2269.307	83.5469	840.2	3387.69
2269.307	85.5625	846.575	3387.69
2269.307	87.5781	830.5	3387.69
2269.308	91.6094	832.65	3387.69
2269.308	93.625	841.8	3387.69
2269.309	95.6719	732.225	3387.69
2269.309	105.4688	0.0	3387.69
2269.309	99.7031	730.5	3387.69
2269.309	101.7031	739.25	3387.69
2269.309	103.7344	0.0	3387.69
2269.31	105.7656	655.825	3387.69
2269.31	107.7188	0.0	3387.69
2269.31	109.7812	537.975	3387.69
2269.311	111.7969	489.45	3387.69
2269.311	115.8906	415.3	3387.69
2269.311	117.8906	387.575	3387.69
2269.312	119.9375	364.225	3387.69
2269.312	121.9844	344.375	3387.69
2269.312	124.0312	325.4	3387.69
2269.312	126.0312	310.0	3387.69
2269.313	128.0781	296.575	3387.69
2269.313	130.1094	284.05	3387.69
2269.313	132.1719	273.05	3387.69
2269.313	134.2031	263.375	3387.69
2269.314	136.2344	254.425	3387.69
2269.314	140.2969	239.0	3387.69
2269.314	142.2812	232.375	3387.69
2269.315	144.375	226.225	3387.69
2269.315	146.375	220.875	3387.69
2269.315	148.4062	216.075	3387.69
2269.315	150.4531	211.8	3387.69
2269.316	152.4375	207.6	3387.69
2269.316	154.4688	204.025	3387.69
2269.316	156.4062	200.575	3387.69
2269.316	158.4531	197.675	3387.69
2269.317	160.4844	195.1	3387.69
2269.317	164.4531	190.85	3387.69
2269.317	166.4844	189.225	3387.69
2269.318	168.5469	187.575	3387.69
2269.318	170.5469	186.525	3387.69
2269.318	172.5469	185.7	3387.69
2269.319	174.5469	185.075	3387.69
2269.319	176.5469	184.55	3387.69
2269.319	178.5156	184.5	3387.69
2269.319	180.5938	184.325	3387.69
2269.319	182.6562	184.6	3387.69
2269.32	184.6094	184.925	3387.69
2269.32	188.6719	186.675	3387.69
2269.321	190.6719	187.75	3387.69
2269.321	192.6562	189.15	3387.69
2269.321	194.6406	190.7	3387.69
2269.321	196.6562	192.65	3387.69
2269.322	198.6719	194.8	3387.69
2269.322	200.6875	197.3	3387.69
2269.322	202.6562	199.925	3387.69
2269.322	204.5938	202.975	3387.69
2269.323	206.5469	206.525	3387.69
2269.323	208.5469	210.325	3387.69
2269.323	212.5312	219.25	3387.69
2269.324	214.4844	224.55	3387.69
2269.324	216.5	230.7	3387.69
2269.324	219.3281	96.75	3387.69
2269.324	221.4375	92.025	3387.69
2269.325	223.4844	89.55	3387.69
2269.325	225.375	0.0	3387.69
2269.325	227.2969	104.875	3387.69
2269.325	229.3125	106.675	3387.69
2269.326	237.8281	0.0	3387.69
2269.326	232.4688	267.7	3387.69
2269.326	236.4062	285.625	3387.69
2269.327	238.3906	303.575	3387.69
2269.327	240.4062	312.8	3387.69
2269.327	242.375	324.975	3387.69
2269.328	244.375	319.475	3387.69
2269.328	246.4062	314.675	3387.69
2269.328	248.4062	314.35	3387.69
2269.328	250.4844	313.5	3387.69
2269.328	252.4844	0.0	3387.69
2269.329	261.9844	0.0	3387.69
2269.329	264.0	0.0	3387.69
2269.329	260.5469	299.85	3387.69
2269.33	262.5625	300.625	3387.69
2269.33	272.0938	0.0	3387.69
2269.33	274.0312	0.0	3387.69
2269.331	268.2812	773.725	3387.69
2269.331	270.2812	765.55	3387.69
2269.331	272.2812	769.975	3387.69
2269.331	274.6719	294.15	3387.69
2269.332	276.3438	803.575	3387.69
2269.332	278.375	789.775	3387.69
2269.332	280.375	802.5	3387.69
2269.333	284.4062	781.8	3387.69
2269.333	286.4375	779.725	3387.69
2269.333	288.4375	781.65	3387.69
2269.333	290.4688	781.55	3387.69
2269.334	292.7812	306.725	3387.69
2269.334	294.7812	297.375	3387.69
2269.334	296.7969	288.5	3387.69
2269.334	298.8594	280.55	3387.69
2269.335	300.875	273.125	3387.69
2269.335	302.8906	266.725	3387.69
2269.335	304.9062	261.0	3387.69
2269.336	308.9219	278.125	3387.69
2269.336	310.9375	266.75	3387.69
2269.336	313.0	256.5	3387.69
2269.336	315.0	247.4	3387.69
2269.337	317.0469	239.3	3387.69
2269.337	319.0938	231.6	3387.69
2269.337	321.1094	224.725	3387.69
2269.337	323.0469	218.525	3387.69
2269.338	325.0938	212.9	3387.69
2269.338	327.125	207.85	3387.69
2269.338	329.1562	203.225	3387.69
2269.342	357.2969	175.65	3387.69
2269.342	359.2812	175.625	3387.69
2269.342	1.2969	175.525	3387.69
2269.343	3.2969	175.625	3387.69
2269.343	5.2812	176.075	3387.69
2269.343	7.2812	176.825	3387.69
2269.343	9.2812	177.825	3387.69
2269.344	11.3125	179.075	3387.69
2269.344	13.2656	180.275	3387.69
2269.344	15.2656	181.85	3387.69
2269.344	24.4375	0.0	3387.69
2269.345	28.4531	0.0	3387.69
2269.345	30.4375	0.0	3387.69
2269.345	32.4531	0.0	3387.69
2269.346	34.5938	0.0	3387.69
2269.346	36.4688	0.0	3387.69
2269.346	38.4688	0.0	3387.69
2269.346	33.4219	161.7	3387.69
2269.347	35.25	0.0	3387.69
2269.347	37.2344	195.325	3387.69
2269.347	39.2656	185.7	3387.69
2269.347	41.2812	188.825	3387.69
2269.348	45.2188	193.3	3387.69
2269.348	47.2031	205.6	3387.69
2269.348	49.1562	214.0	3387.69
2269.349	51.1719	223.9	3387.69
2269.349	53.125	234.2	3387.69
2269.349	55.1094	241.675	3387.69
2269.349	57.0938	255.075	3387.69
2269.35	59.0469	269.525	3387.69
2269.35	61.0156	285.475	3387.69
2269.35	62.9531	337.275	3387.69
2269.35	64.9219	367.7	3387.69
2269.351	68.8594	427.025	3387.69
2269.351	70.8438	476.775	3387.69
2269.351	72.8281	0.0	3387.69
2269.352	74.7812	0.0	3387.69
2269.352	76.7031	0.0	3387.69
2269.352	78.6875	912.5	3387.69
2269.353	80.7188	0.0	3387.69
2269.353	90.6719	0.0	3387.69
2269.353	84.8594	838.525	3387.69
2269.353	86.9375	0.0	3387.69
2269.354	88.9219	831.85	3387.68
2269.354	92.9531	831.175	3387.69
2269.354	95.0	728.6	3387.69
2269.354	97.0156	728.225	3387.69
2269.355	99.0156	730.675	3387.69
2269.355	101.0312	735.5	3387.69
2269.355	103.0469	729.875	3387.69
2269.356	105.0938	655.3	3387.69
2269.356	107.0469	619.325	3387.69
2269.356	109.0781	552.775	3387.69
2269.356	111.1094	503.575	3387.69
2269.357	113.1562	461.925	3387.69
2269.357	117.25	397.55	3387.69
2269.357	119.25	371.6	3387.69
2269.358	121.2656	350.625	3387.69
2269.358	123.3125	331.5	3387.69
2269.358	125.3594	315.275	3387.69
2269.358	127.3906	301.5	3387.69
2269.359	129.4219	288.6	3387.69
2269.359	131.4688	276.9	3387.69
2269.359	133.4844	266.45	3387.69
2269.359	135.5312	257.425	3387.69
2269.36	137.5469	249.1	3387.69
2269.36	141.6406	234.975	3387.69
2269.36	143.6406	228.5	3387.69
2269.361	145.6562	222.55	3387.69
2269.361	147.6875	217.7	3387.69
2269.361	149.7344	213.225	3387.69
2269.361	151.7188	209.025	3387.69
2269.362	153.7344	205.15	3387.69
2269.362	155.7656	201.825	3387.69
2269.362	157.7656	198.5	3387.69
2269.363	159.75	196.125	3387.69
2269.363	161.8125	193.55	3387.69
2269.363	165.7656	189.8	3387.69
2269.364	167.7969	188.2	3387.69
2269.364	169.8125	187.025	3387.69
2269.364	171.7969	186.125	3387.69
2269.364	173.8125	185.2	3387.69
2269.364	175.8438	184.625	3387.69
2269.365	177.8125	184.525	3387.69
2269.365	179.9219	184.3	3387.69
2269.365	181.9531	184.75	3387.69
2269.366	183.9688	184.8	3387.69
2269.366	185.9531	185.35	3387.69
2269.366	189.9688	187.4	3387.69
2269.367	191.9688	188.45	3387.69
2269.367	193.9844	190.025	3387.69
2269.367	195.9688	191.8	3387.69
2269.367	197.9531	193.85	3387.69
2269.368	199.9844	196.325	3387.69
2269.368	201.9844	198.925	3387.69
2269.368	203.9062	201.825	3387.69
2269.368	205.8906	205.15	3387.69
2269.369	207.8594	208.825	3387.69
2269.369	209.8281	212.875	3387.69
2269.369	213.8125	222.7	3387.69
2269.37	215.8281	228.525	3387.69
2269.37	218.6719	0.0	3387.69
2269.37	220.7656	92.65	3387.69
2269.37	222.7656	90.0	3387.69
2269.371	224.6719	92.875	3387.69
2269.371	226.6094	102.875	3387.69
2269.371	228.5938	105.725	3387.69
2269.371	230.5781	108.175	3387.69
2269.372	239.1875	0.0	3387.69
2269.372	233.7344	276.1	3387.69
2269.373	237.7188	297.5	3387.69
2269.373	239.6719	312.2	3387.69
2269.373	241.6406	323.775	3387.69
2269.373	243.6719	321.6	3387.69
2269.373	245.6562	316.175	3387.69
2269.374	247.6719	313.675	3387.69
2269.374	249.6719	317.15	3387.69
2269.374	251.8125	305.275	3387.69
2269.374	261.2656	0.0	3387.69
2269.375	263.2656	0.0	3387.69
2269.375	265.2812	0.0	3387.69
2269.376	261.8281	304.6	3387.69
2269.376	263.875	294.65	3387.69
2269.376	265.5625	788.8	3387.69
2269.376	267.5781	777.025	3387.69
2269.377	269.5625	766.975	3387.69
2269.377	271.5938	757.175	3387.69
2269.377	273.9219	294.95	3387.69
2269.377	283.4531	0.0	3387.69
2269.378	277.6406	794.875	3387.69
2269.378	279.6719	791.175	3387.69
2269.378	281.6875	785.9	3387.69
2269.379	285.7188	782.175	3387.69
2269.379	287.7188	779.825	3387.69
2269.379	289.7188	778.525	3387.69
2269.379	292.0312	310.5	3387.69
2269.38	294.0781	300.425	3387.69
2269.38	296.1094	291.625	3387.69
2269.38	298.125	283.3	3387.69
2269.38	300.1562	275.625	3387.69
2269.381	302.1719	269.2	3387.69
2269.381	304.2188	263.075	3387.69
2269.381	306.2188	257.775	3387.69
2269.382	310.2188	270.325	3387.69
2269.382	312.2656	260.075	3387.69
2269.382	314.25	250.775	3387.69
2269.382	316.3125	242.075	3387.69
2269.383	318.3594	234.175	3387.69
2269.383	320.3594	226.875	3387.69
2269.383	322.4375	220.5	3387.69
2269.383	324.3438	215.025	3387.69
2269.384	326.4062	209.675	3387.69
2269.384	328.3906	204.825	3387.69
2269.384	330.4375	200.675	3387.69
2269.388	356.5312	175.75	3387.69
2269.388	358.5312	175.475	3387.69
2269.388	0.5625	175.525	3387.69
2269.388	2.5625	175.55	3387.69
2269.389	4.5469	175.95	3387.69
2269.389	6.5781	176.525	3387.69
2269.389	8.5781	177.525	3387.69
2269.389	10.5625	178.625	3387.69
2269.39	12.6094	179.85	3387.68
2269.39	14.5625	181.5	3387.68
2269.39	23.7031	0.0	3387.68
2269.391	27.7188	0.0	3387.69
2269.391	29.7188	0.0	3387.69
2269.391	31.7344	0.0	3387.69
2269.391	33.75	0.0	3387.69
2269.392	35.7344	0.0	3387.69
2269.392	37.7344	0.0	3387.69
2269.392	32.7031	0.0	3387.69
2269.392	41.7344	0.0	3387.69
2269.393	36.5156	198.5	3387.68
2269.393	38.5781	188.825	3387.68
2269.393	40.5625	186.925	3387.68
2269.394	44.5469	190.05	3387.69
2269.394	46.5312	202.875	3387.69
2269.394	48.4688	211.2	3387.69
2269.395	50.4375	220.1	3387.69
2269.395	52.4375	230.5	3387.69
2269.395	54.4219	237.6	3387.69
2269.395	56.3906	250.175	3387.69
2269.396	58.3594	264.275	3387.69
2269.396	60.3125	280.425	3387.69
2269.396	62.2344	328.7	3387.69
2269.396	64.2188	361.225	3387.69
2269.397	68.1719	426.15	3387.69
2269.397	77.7656	0.0	3387.69
2269.397	72.0938	490.175	3387.69
2269.398	74.0781	583.725	3387.69
2269.398	76.0469	0.0	3387.69
2269.398	85.7812	0.0	3387.69
2269.398	79.9844	901.375	3387.69
2269.399	82.2031	834.55	3387.69
2269.399	84.1562	845.375	3387.69
2269.399	86.1719	850.2	3387.69
2269.399	88.2031	833.075	3387.69
2269.4	92.25	830.875	3387.69
2269.4	94.2656	0.0	3387.69
2269.4	96.2969	752.375	3387.69
2269.401	98.2969	732.05	3387.69
2269.401	100.3125	733.425	3387.69
2269.401	102.3281	738.55	3387.69
2269.401	104.3594	660.75	3387.69
2269.402	106.3438	654.8	3387.69
2269.402	108.375	571.975	3387.69
2269.402	110.4219	520.725	3387.69
2269.402	112.4219	476.6	3387.69
2269.403	116.5	407.4	3387.69
2269.403	118.5312	380.1	3387.69
2269.403	120.5781	356.925	3387.69
2269.404	122.5938	337.975	3387.69
2269.404	124.6406	321.025	3387.69
2269.404	126.6719	306.125	3387.69
2269.404	128.7188	292.875	3387.69
2269.405	130.75	280.2	3387.69
2269.405	132.7969	269.85	3387.69
2269.405	134.7969	260.6	3387.69
2269.406	136.8281	252.0	3387.68
2269.406	140.9219	236.8	3387.69
2269.406	142.9375	230.25	3387.69
2269.406	144.9375	224.575	3387.69
2269.407	146.9688	219.45	3387.69
2269.407	149.0	214.9	3387.69
2269.407	151.0156	210.6	3387.69
2269.408	153.0469	206.425	3387.69
2269.408	155.0469	202.975	3387.69
2269.408	157.0156	199.675	3387.69
2269.408	159.0938	196.925	3387.69
2269.409	161.0625	194.375	3387.69
2269.409	165.0781	190.375	3387.69
2269.409	167.0938	188.85	3387.69
2269.41	169.0938	187.275	3387.69
2269.41	171.1406	186.175	3387.69
2269.41	173.0938	185.425	3387.69
2269.41	175.1562	184.85	3387.69
2269.411	177.1719	184.525	3387.69
2269.411	179.2188	184.45	3387.69
2269.411	181.25	184.375	3387.69
2269.411	183.2344	184.625	3387.69
2269.412	185.2344	185.125	3387.69
2269.412	189.25	186.8	3387.69
2269.412	191.2656	188.0	3387.69
2269.413	193.2812	189.625	3387.69
2269.413	195.2344	191.225	3387.69
2269.413	197.2812	193.125	3387.69
2269.413	199.2656	195.35	3387.69
2269.414	201.3125	197.875	3387.69
2269.414	203.2031	200.8	3387.69
2269.414	205.1875	203.925	3387.69
2269.415	207.1719	207.7	3387.69
2269.415	209.1719	211.525	3387.69
2269.415	213.1406	220.8	3387.69
2269.415	215.125	226.525	3387.69
2269.416	217.0938	232.925	3387.69
2269.416	219.9531	94.1	3387.69
2269.416	222.0938	90.75	3387.69
2269.416	224.0938	90.35	3387.69
2269.417	225.9062	101.9	3387.69
2269.417	227.9062	105.375	3387.69
2269.417	229.8906	106.65	3387.69
2269.418	238.4531	0.0	3387.69
2269.418	233.0156	273.875	3387.69
2269.418	237.0312	288.875	3387.69
2269.418	239.0	306.6	3387.69
2269.419	240.9844	319.2	3387.69
2269.419	242.9844	323.025	3387.69
2269.419	245.0156	317.75	3387.69
2269.42	247.0156	313.1	3387.69
2269.42	249.0312	316.525	3387.69
2269.42	251.0781	0.0	3387.69
2269.42	260.5781	0.0	3387.69
2269.421	262.5938	0.0	3387.69
2269.421	264.6094	0.0	3387.69
2269.421	261.1875	296.425	3387.69
2269.422	263.1719	298.9	3387.69
2269.422	272.6562	0.0	3387.69
2269.422	266.875	782.1	3387.69
2269.422	268.875	770.025	3387.69
2269.423	270.8906	761.075	3387.69
2269.423	272.9062	0.0	3387.69
2269.423	282.7969	0.0	3387.69
2269.423	276.9688	797.875	3387.69
2269.424	279.0	786.65	3387.69
2269.424	288.7812	0.0	3387.69
2269.424	285.0625	782.225	3387.69
2269.425	287.0625	781.275	3387.69
2269.425	289.0781	780.825	3387.69
2269.425	291.3438	0.0	3387.69
2269.425	293.4062	303.675	3387.69
2269.426	295.4531	293.95	3387.69
2269.426	297.4531	285.55	3387.69
2269.426	299.4844	278.15	3387.69
2269.426	301.4844	271.525	3387.69
2269.427	303.5156	265.175	3387.69
2269.427	305.5625	259.225	3387.69
2269.427	309.5156	274.0	3387.69
2269.428	311.5625	263.5	3387.69
2269.428	313.6094	253.9	3387.69
2269.428	315.6562	244.925	3387.69
2269.428	317.6719	236.3	3387.69
2269.429	319.7031	229.15	3387.69
2269.429	321.7188	222.575	3387.69
2269.429	323.7344	216.625	3387.69
2269.43	325.7344	211.2	3387.69
2269.43	327.75	206.325	3387.69
2269.43	329.8125	202.075	3387.69
2269.433	355.9219	175.9	3387.69
2269.434	357.9062	175.475	3387.69
2269.434	359.9219	175.525	3387.69
2269.434	1.9531	175.4	3387.69
2269.434	3.9844	175.75	3387.69
2269.435	5.9219	176.275	3387.69
2269.435	7.9062	177.25	3387.69
2269.435	9.9062	178.3	3387.69
2269.435	11.9531	179.5	3387.69
2269.436	13.9375	180.925	3387.68
2269.436	23.2188	0.0	3387.68
2269.436	20.1875	0.0	3387.69
2269.437	29.0938	0.0	3387.69
2269.437	31.1094	0.0	3387.69
2269.437	33.1094	0.0	3387.69
2269.437	35.1094	0.0	3387.69
2269.438	37.125	0.0	3387.69
2269.438	39.1094	0.0	3387.69
2269.438	34.0625	161.325	3387.69
2269.438	35.8906	201.075	3387.69
2269.439	37.9219	191.95	3387.68
2269.439	39.9219	185.475	3387.68
2269.44	51.0938	0.0	3387.69
2269.44	45.8906	200.35	3387.69
2269.44	47.8594	208.225	3387.69
2269.44	49.8594	216.85	3387.69
2269.441	51.8125	226.725	3387.69
2269.441	61.1875	0.0	3387.69
2269.441	55.7656	246.475	3387.69
2269.441	57.7188	260.45	3387.69
2269.441	59.7188	275.75	3387.69
2269.442	61.6719	0.0	3387.68
2269.442	63.6094	354.425	3387.68
2269.443	67.5469	428.05	3387.69
2269.443	77.1562	0.0	3387.69
2269.443	71.5156	486.8	3387.69
2269.443	73.4688	0.0	3387.69
2269.444	75.4375	639.775	3387.69
2269.444	77.375	843.325	3387.69
2269.444	79.3906	902.25	3387.69
2269.444	81.3906	833.8	3387.69
2269.445	91.3594	0.0	3387.68
2269.445	85.5625	847.0	3387.68
2269.445	87.6094	829.2	3387.68
2269.446	91.625	832.8	3387.69
2269.446	93.6406	841.8	3387.69
2269.446	95.7031	730.325	3387.69
2269.446	105.4844	0.0	3387.69
2269.447	99.7344	730.375	3387.69
2269.447	101.7188	739.45	3387.69
2269.447	103.7812	0.0	3387.69
2269.447	105.7812	656.9	3387.69
2269.448	107.7656	0.0	3387.69
2269.448	109.7969	535.85	3387.69
2269.448	111.8281	487.85	3387.69
2269.449	115.8906	415.025	3387.69
2269.449	117.9531	387.45	3387.69
2269.449	119.9844	363.925	3387.69
2269.449	122.0	343.525	3387.69
2269.45	124.0625	325.6	3387.69
2269.45	126.0625	309.75	3387.69
2269.45	128.1094	296.525	3387.69
2269.451	130.1406	283.975	3387.69
2269.451	132.1875	272.75	3387.69
2269.451	134.2188	263.125	3387.69
2269.451	136.2656	254.35	3387.69
2269.452	140.3594	238.95	3387.69
2269.452	142.3594	232.2	3387.69
2269.452	144.3906	226.075	3387.69
2269.453	146.4062	220.85	3387.69
2269.453	148.4375	216.025	3387.69
2269.453	150.4531	211.75	3387.69
2269.453	152.4688	207.5	3387.69
2269.454	154.5156	203.875	3387.69
2269.454	156.4531	200.525	3387.69
2269.454	158.5156	197.6	3387.69
2269.454	160.4844	195.0	3387.69
2269.455	164.5469	190.825	3387.69
2269.455	166.5312	189.225	3387.69
2269.455	168.5625	187.525	3387.69
2269.456	170.5312	186.525	3387.69
2269.456	172.5781	185.65	3387.69
2269.456	174.5625	185.05	3387.69
2269.456	176.625	184.55	3387.69
2269.457	178.5781	184.5	3387.69
2269.457	180.7031	184.35	3387.69
2269.457	182.6875	184.5	3387.69
2269.457	184.7188	184.9	3387.69
2269.458	188.7188	186.7	3387.69
2269.458	190.7656	187.7	3387.69
2269.458	192.7656	189.325	3387.69
2269.459	194.75	190.75	3387.69
2269.459	196.7656	192.75	3387.69
2269.459	198.7969	194.825	3387.69
2269.46	200.75	197.325	3387.69
2269.46	202.7969	200.1	3387.69
2269.46	204.6406	203.025	3387.69
2269.46	206.6719	206.625	3387.69
2269.46	208.6094	210.4	3387.69
2269.461	212.5781	219.55	3387.69
2269.461	214.5938	225.15	3387.69
2269.461	216.5625	231.075	3387.69
2269.462	219.4219	95.55	3387.69
2269.462	221.5469	91.25	3387.69
2269.462	223.5156	89.325	3387.69
2269.463	225.4219	99.625	3387.69
2269.463	227.4062	104.475	3387.69
2269.463	229.4531	106.05	3387.69
2269.463	237.9531	0.0	3387.69
2269.464	232.5312	268.125	3387.69
2269.464	236.5156	285.85	3387.69
2269.464	238.5	303.725	3387.69
2269.465	240.5156	317.875	3387.69
2269.465	242.4688	324.5	3387.69
2269.465	244.5	319.05	3387.69
2269.465	246.4844	314.35	3387.69
2269.466	248.5156	315.95	3387.69
2269.466	250.625	0.0	3387.69
2269.466	260.1406	0.0	3387.69
2269.466	262.0938	0.0	3387.69
2269.467	264.1094	0.0	3387.69
2269.467	260.6562	299.8	3387.69
2269.467	262.6719	300.925	3387.69
2269.468	272.2031	0.0	3387.69
2269.468	274.1562	0.0	3387.69
2269.468	268.3906	773.05	3387.69
2269.468	270.4062	764.775	3387.69
2269.469	272.4219	778.8	3387.69
2269.469	274.8125	293.425	3387.69
2269.469	276.5	803.175	3387.69
2269.47	278.4844	789.575	3387.69
2269.47	280.5312	805.325	3387.69
2269.47	284.5469	783.05	3387.69
2269.47	286.5469	781.4	3387.69
2269.471	288.5781	782.625	3387.69
2269.471	290.5781	779.6	3387.69
2269.471	292.9062	305.875	3387.69
2269.471	294.9375	296.55	3387.69
2269.472	296.9688	287.65	3387.69
2269.472	298.9531	280.1	3387.69
2269.472	301.0312	273.05	3387.69
2269.473	303.0156	266.4	3387.69
2269.473	305.0469	260.45	3387.69
2269.473	309.0781	276.925	3387.69
2269.474	311.0781	266.125	3387.69
2269.474	313.1094	256.075	3387.69
2269.474	315.1406	246.65	3387.69
2269.474	317.1719	238.525	3387.69
2269.475	319.2344	231.125	3387.69
2269.475	321.2656	224.225	3387.69
2269.475	323.2344	218.15	3387.69
2269.475	325.2656	212.575	3387.69
2269.476	327.2812	207.4	3387.69
2269.476	329.3281	202.975	3387.69
2269.479	355.4531	176.0	3387.69
2269.479	357.4688	175.625	3387.69
2269.48	359.4844	175.6	3387.69
2269.48	1.4688	175.475	3387.69
2269.48	3.4688	175.775	3387.69
2269.48	5.4531	176.125	3387.69
2269.481	7.4375	176.85	3387.68
2269.481	9.4844	178.05	3387.68
2269.481	11.4688	179.2	3387.68
2269.481	13.4688	180.575	3387.68
2269.482	15.5	181.95	3387.68
2269.482	26.6406	0.0	3387.69
2269.482	28.6406	0.0	3387.69
2269.483	30.6562	0.0	3387.69
2269.483	32.6406	0.0	3387.69
2269.483	27.1875	0.0	3387.69
2269.483	36.6719	0.0	3387.69
2269.484	38.6562	0.0	3387.68
2269.484	40.6875	0.0	3387.68
2269.484	35.4219	0.0	3387.68
2269.485	37.4688	193.85	3387.68
2269.485	39.4844	186.575	3387.68
2269.485	43.5	189.0	3387.69
2269.486	45.4844	0.0	3387.69
2269.486	47.4219	206.625	3387.69
2269.486	49.4219	215.2	3387.69
2269.486	51.375	224.875	3387.69
2269.487	53.3438	233.9	3387.69
2269.487	55.3438	243.175	3387.69
2269.487	57.2812	256.8	3387.69
2269.487	59.2969	271.925	3387.69
2269.488	61.2656	0.0	3387.68
2269.488	63.1875	0.0	3387.68
2269.488	67.0938	428.375	3387.69
2269.489	69.1094	427.65	3387.69
2269.489	71.0938	480.95	3387.69
2269.489	73.0625	514.85	3387.69
2269.489	75.0312	0.0	3387.69
2269.49	76.9688	0.0	3387.69
2269.49	78.9531	910.775	3387.69
2269.49	80.9688	843.675	3387.69
2269.49	83.1406	838.125	3387.69
2269.491	92.9375	0.0	3387.68
2269.491	87.2031	835.95	3387.68
2269.491	91.2188	833.125	3387.69
2269.492	93.2344	830.4	3387.69
2269.492	95.2812	724.45	3387.69
2269.492	97.2969	730.65	3387.69
2269.493	99.2969	736.175	3387.69
2269.493	101.3125	737.6	3387.69
2269.493	103.3438	0.0	3387.69
2269.493	105.3906	656.375	3387.69
2269.493	107.3281	607.925	3387.69
2269.494	109.3906	547.625	3387.68
2269.494	111.4062	497.175	3387.68
2269.495	115.4688	421.3	3387.69
2269.495	117.5156	392.9	3387.69
2269.495	119.5625	368.35	3387.69
2269.495	121.5938	347.925	3387.69
2269.496	123.6406	329.275	3387.69
2269.496	125.6719	312.875	3387.69
2269.496	127.6875	299.025	3387.69
2269.496	129.75	286.425	3387.69
2269.497	131.8125	275.4	3387.68
2269.497	133.7969	265.15	3387.68
2269.497	135.875	256.05	3387.68
2269.498	139.9375	240.325	3387.69
2269.498	141.9531	233.575	3387.69
2269.498	143.9844	227.35	3387.69
2269.498	146.0312	221.675	3387.69
2269.499	148.0625	217.0	3387.69
2269.499	150.0469	212.525	3387.69
2269.499	152.0938	208.4	3387.69
2269.499	154.125	204.625	3387.69
2269.5	156.0938	201.25	3387.69
2269.5	158.0781	198.2	3387.69
2269.5	160.1406	195.55	3387.69
2269.501	164.1406	191.1	3387.69
2269.501	166.1406	189.575	3387.69
2269.501	168.1562	187.925	3387.69
2269.501	170.2031	186.8	3387.69
2269.502	172.1719	185.85	3387.69
2269.502	174.1719	185.15	3387.69
2269.502	176.2188	184.625	3387.69
2269.502	178.2656	184.525	3387.69
2269.503	180.2969	184.25	3387.69
2269.503	182.2969	184.7	3387.69
2269.503	184.2969	184.725	3387.69
2269.504	188.3281	186.425	3387.69
2269.504	190.3281	187.525	3387.69
2269.504	192.3125	188.875	3387.69
2269.505	194.3281	190.325	3387.69
2269.505	196.3438	192.225	3387.69
2269.505	198.3281	194.35	3387.69
2269.505	200.3438	196.8	3387.69
2269.506	202.3594	199.375	3387.69
2269.506	204.2812	202.325	3387.69
2269.506	206.25	205.775	3387.69
2269.506	208.25	209.4	3387.69
2269.507	212.2188	218.425	3387.69
2269.507	214.1719	223.825	3387.69
2269.507	216.1875	229.925	3387.69
2269.508	219.1094	96.775	3387.69
2269.508	221.125	91.65	3387.69
2269.508	223.1719	89.2	3387.69
2269.508	225.0312	0.0	3387.69
2269.509	227.0	103.625	3387.69
2269.509	229.0469	105.6	3387.69
2269.509	230.9531	108.2	3387.69
2269.509	239.6094	0.0	3387.69
2269.51	236.1406	285.95	3387.69
2269.51	238.1094	300.775	3387.69
2269.51	240.1094	316.025	3387.69
2269.511	242.0938	325.975	3387.69
2269.511	244.1094	320.125	3387.69
2269.511	246.1094	314.925	3387.69
2269.511	248.1562	314.775	3387.69
2269.512	250.125	315.575	3387.69
2269.512	259.75	0.0	3387.69
2269.512	261.6875	0.0	3387.69
2269.512	263.7031	0.0	3387.69
2269.513	260.2812	300.95	3387.69
2269.513	262.2969	300.925	3387.69
2269.513	264.3125	295.575	3387.69
2269.514	265.9688	787.25	3387.69
2269.514	268.0	774.7	3387.69
2269.514	270.0156	765.2	3387.69
2269.515	272.0156	762.5	3387.69
2269.515	274.3438	294.95	3387.69
2269.515	276.1094	0.0	3387.69
2269.515	278.125	794.975	3387.69
2269.515	280.1406	798.45	3387.69
2269.516	284.1406	780.675	3387.69
2269.516	286.1719	780.05	3387.69
2269.517	288.1875	780.075	3387.69
2269.517	290.2031	777.075	3387.69
2269.517	292.5156	308.025	3387.69
2269.517	294.5469	298.275	3387.69
2269.518	296.5938	289.325	3387.69
2269.518	298.6094	281.55	3387.69
2269.518	300.625	274.475	3387.69
2269.518	302.6719	267.625	3387.69
2269.519	304.6719	261.425	3387.69
2269.519	308.6562	278.8	3387.69
2269.519	310.7031	268.075	3387.69
2269.52	312.7188	257.775	3387.69
2269.52	314.7812	248.3	3387.69
2269.52	316.7969	240.1	3387.69
2269.52	318.8438	232.225	3387.69
2269.521	320.9219	225.45	3387.69
2269.521	322.8906	219.075	3387.69
2269.521	324.875	213.575	3387.69
2269.521	326.9062	208.375	3387.69
2269.522	328.9219	203.85	3387.69
2269.525	355.0469	176.175	3387.69
2269.525	357.0938	175.725	3387.69
2269.525	359.1094	175.575	3387.69
2269.526	1.1094	175.625	3387.68
2269.526	3.1094	175.55	3387.68
2269.526	5.0781	176.025	3387.68
2269.527	7.0625	176.65	3387.68
2269.527	9.0938	177.725	3387.68
2269.527	11.0938	178.975	3387.68
2269.527	13.1406	180.175	3387.68
2269.528	15.1094	181.825	3387.68
2269.528	26.2656	0.0	3387.69
2269.528	28.25	0.0	3387.69
2269.528	30.25	0.0	3387.69
2269.529	32.2812	0.0	3387.69
2269.529	34.3594	0.0	3387.69
2269.529	36.2812	0.0	3387.69
2269.53	38.2969	0.0	3387.68
2269.53	33.2344	162.175	3387.68
2269.53	35.0312	0.0	3387.68
2269.53	37.0938	194.875	3387.68
2269.531	39.1094	186.475	3387.68
2269.531	43.1094	191.325	3387.69
2269.531	45.1094	191.85	3387.69
2269.532	47.0781	205.225	3387.69
2269.532	49.0312	213.5	3387.69
2269.532	51.0469	222.95	3387.69
2269.532	60.3125	0.0	3387.69
2269.533	54.9531	240.575	3387.68
2269.533	56.9688	254.025	3387.68
2269.533	58.9062	268.425	3387.68
2269.533	60.9219	0.0	3387.68
2269.534	62.8281	334.225	3387.68
2269.534	66.7188	426.05	3387.69
2269.534	68.7188	425.95	3387.69
2269.535	70.7031	0.0	3387.69
2269.535	72.6719	0.0	3387.69
2269.535	74.6562	603.075	3387.69
2269.535	76.5781	0.0	3387.69
2269.536	78.5781	0.0	3387.68
2269.536	80.5938	0.0	3387.68
2269.536	90.5312	0.0	3387.68
2269.536	84.7656	841.275	3387.68
2269.537	86.8125	838.1	3387.68
2269.537	90.8281	833.175	3387.69
2269.538	92.8281	833.075	3387.69
2269.538	94.8906	0.0	3387.69
2269.538	96.9062	731.95	3387.69
2269.538	98.9062	731.375	3387.69
2269.538	100.9375	735.8	3387.69
2269.539	102.9531	730.925	3387.68
2269.539	104.9844	654.8	3387.68
2269.539	106.9375	0.0	3387.68
2269.54	108.9844	557.25	3387.68
2269.54	111.0	507.5	3387.68
2269.54	115.0938	426.675	3387.69
2269.541	117.1406	397.675	3387.69
2269.541	119.1719	372.625	3387.69
2269.541	121.2188	351.5	3387.69
2269.541	123.2344	332.2	3387.69
2269.542	125.2969	315.825	3387.69
2269.542	127.3125	301.5	3387.69
2269.542	129.375	288.65	3387.69
2269.542	131.4375	277.3	3387.69
2269.543	133.4531	267.05	3387.68
2269.543	135.4844	257.5	3387.68
2269.543	139.5156	241.65	3387.69
2269.544	141.6094	235.05	3387.69
2269.544	143.5781	228.775	3387.69
2269.544	145.625	222.725	3387.69
2269.544	147.6875	217.7	3387.69
2269.545	149.6719	213.25	3387.69
2269.545	151.6875	209.0	3387.69
2269.545	153.7188	205.225	3387.69
2269.545	155.6875	201.825	3387.69
2269.546	157.6875	198.65	3387.68
2269.546	159.7031	196.175	3387.68
2269.546	163.75	191.575	3387.69
2269.547	165.75	189.8	3387.69
2269.547	167.75	188.225	3387.69
2269.547	169.7969	187.0	3387.69
2269.548	171.7969	186.1	3387.69
2269.548	173.8125	185.175	3387.69
2269.548	175.8438	184.625	3387.69
2269.548	177.8125	184.5	3387.69
2269.548	179.875	184.3	3387.69
2269.549	181.9062	184.7	3387.68
2269.549	183.9062	184.775	3387.68
2269.55	187.9688	186.3	3387.69
2269.55	189.9062	187.4	3387.69
2269.55	191.9375	188.45	3387.69
2269.55	193.9531	190.0	3387.69
2269.551	195.9688	191.775	3387.69
2269.551	198.0	193.875	3387.69
2269.551	199.9844	196.35	3387.69
2269.551	201.9688	198.9	3387.69
2269.552	203.9062	201.8	3387.68
2269.552	205.9062	205.125	3387.68
2269.552	207.875	208.825	3387.68
2269.553	211.8281	217.4	3387.69
2269.553	213.8594	222.7	3387.69
2269.553	215.8438	228.65	3387.69
2269.553	218.625	0.0	3387.69
2269.554	220.7344	91.9	3387.69
2269.554	222.8281	89.5	3387.69
2269.554	224.7031	0.0	3387.69
2269.554	226.7031	102.825	3387.69
2269.555	228.6094	105.125	3387.69
2269.555	230.5469	107.025	3387.69
2269.555	239.1875	0.0	3387.69
2269.556	235.7656	282.85	3387.69
2269.556	237.7344	297.5	3387.69
2269.556	239.7344	312.125	3387.69
2269.557	241.7031	325.3	3387.69
2269.557	243.7188	321.425	3387.69
2269.557	245.75	316.05	3387.69
2269.557	247.75	313.575	3387.69
2269.557	249.7344	317.075	3387.69
2269.558	251.8594	305.625	3387.69
2269.558	261.3281	0.0	3387.69
2269.558	263.3438	0.0	3387.69
2269.559	259.875	299.15	3387.69
2269.559	261.8906	303.85	3387.69
2269.559	263.9219	295.25	3387.69
2269.56	265.5938	787.525	3387.69
2269.56	267.6406	776.45	3387.69
2269.56	269.6562	766.85	3387.69
2269.56	271.6562	757.35	3387.69
2269.561	273.9844	295.1	3387.69
2269.561	275.7188	0.0	3387.69
2269.561	277.7344	792.675	3387.69
2269.561	279.7344	792.0	3387.69
2269.562	283.7812	782.8	3387.69
2269.562	285.7969	781.35	3387.69
2269.562	287.8125	780.8	3387.69
2269.563	289.8438	779.0	3387.69
2269.563	292.1562	309.875	3387.69
2269.563	294.1719	299.75	3387.69
2269.563	296.1875	290.975	3387.69
2269.564	298.2344	282.975	3387.69
2269.564	300.2812	275.575	3387.69
2269.564	302.2656	268.925	3387.69
2269.564	304.3281	262.6	3387.69
2269.565	308.2812	278.825	3387.69
2269.565	310.3594	270.0	3387.69
2269.565	312.375	259.975	3387.69
2269.566	314.4062	250.025	3387.69
2269.566	316.4062	241.425	3387.69
2269.566	318.4688	233.6	3387.69
2269.566	320.5156	226.65	3387.69
2269.567	322.5469	220.475	3387.69
2269.567	324.5	214.65	3387.69
2269.567	326.5	209.5	3387.69
2269.567	328.5312	204.6	3387.69
2269.571	358.7188	175.475	3387.69
2269.572	0.7344	175.525	3387.68
2269.572	2.7344	175.725	3387.68
2269.572	4.7656	176.025	3387.68
2269.572	6.75	176.6	3387.68
2269.573	8.7031	177.6	3387.68
2269.573	10.7188	178.675	3387.68
2269.573	12.75	180.0	3387.68
2269.573	14.7812	181.475	3387.68
2269.573	23.8906	0.0	3387.68
2269.574	25.9062	0.0	3387.68
2269.574	29.9219	0.0	3387.69
2269.575	31.9375	0.0	3387.68
2269.575	34.0	0.0	3387.68
2269.575	35.9531	0.0	3387.68
2269.575	37.9531	0.0	3387.68
2269.576	32.9062	0.0	3387.68
2269.576	41.9531	0.0	3387.68
2269.576	36.7188	197.725	3387.68
2269.576	38.7344	189.0	3387.68
2269.577	40.7656	187.325	3387.68
2269.577	42.8281	187.125	3387.68
2269.577	46.7344	203.825	3387.69
2269.578	48.6875	211.9	3387.68
2269.578	50.6406	221.0	3387.68
2269.578	52.625	231.325	3387.68
2269.578	54.6094	238.625	3387.68
2269.579	56.5938	251.475	3387.68
2269.579	58.5781	266.25	3387.68
2269.579	60.5469	282.575	3387.68
2269.58	62.4844	330.1	3387.68
2269.58	64.4688	363.2	3387.68
2269.58	66.3906	419.825	3387.68
2269.58	70.375	0.0	3387.69
2269.581	72.375	492.625	3387.69
2269.581	74.2969	589.675	3387.69
2269.581	76.25	0.0	3387.69
2269.582	78.2188	0.0	3387.68
2269.582	80.25	898.575	3387.68
2269.582	82.4062	836.4	3387.68
2269.582	84.3906	843.5	3387.68
2269.583	86.4219	844.65	3387.68
2269.583	88.4375	831.8	3387.68
2269.583	90.4531	832.15	3387.68
2269.584	94.5156	0.0	3387.69
2269.584	96.5156	734.225	3387.69
2269.584	98.5312	733.4	3387.69
2269.584	100.5469	734.625	3387.69
2269.585	102.5625	735.65	3387.68
2269.585	104.625	653.65	3387.68
2269.585	106.5938	0.0	3387.68
2269.585	108.6406	567.05	3387.68
2269.586	110.6719	513.825	3387.68
2269.586	112.7188	469.95	3387.68
2269.586	114.7812	432.675	3387.68
2269.587	118.8438	376.9	3387.69
2269.587	120.875	355.1	3387.69
2269.587	122.9062	335.4	3387.69
2269.587	124.9531	317.825	3387.69
2269.588	126.9844	303.475	3387.68
2269.588	129.0312	290.85	3387.68
2269.588	131.0625	278.825	3387.68
2269.588	133.0938	268.525	3387.68
2269.589	135.125	258.925	3387.68
2269.589	137.1875	250.575	3387.68
2269.589	139.1875	242.975	3387.68
2269.59	143.25	229.5	3387.69
2269.59	145.2969	223.5	3387.69
2269.59	147.2969	218.525	3387.69
2269.59	149.3125	213.975	3387.69
2269.591	151.3281	209.675	3387.68
2269.591	153.375	205.9	3387.68
2269.591	155.3281	202.45	3387.68
2269.592	157.3594	199.275	3387.68
2269.592	159.4062	196.625	3387.68
2269.592	161.3906	193.975	3387.68
2269.592	163.3906	191.975	3387.68
2269.593	167.4062	188.425	3387.69
2269.593	169.4375	187.125	3387.69
2269.593	171.4531	186.1	3387.69
2269.593	173.5	185.275	3387.69
2269.594	175.5	184.775	3387.69
2269.594	177.5156	184.525	3387.69
2269.594	179.5781	184.3	3387.69
2269.595	181.5938	184.575	3387.68
2269.595	183.625	184.75	3387.68
2269.595	185.625	185.25	3387.68
2269.595	187.6094	186.075	3387.68
2269.596	191.6406	188.25	3387.69
2269.596	193.6562	189.75	3387.69
2269.596	195.6406	191.475	3387.69
2269.597	197.6406	193.575	3387.69
2269.597	199.625	195.925	3387.69
2269.597	201.6406	198.575	3387.69
2269.597	203.5625	201.275	3387.69
2269.598	205.5938	204.525	3387.68
2269.598	207.5312	208.225	3387.68
2269.598	209.5	212.225	3387.68
2269.598	211.5469	216.8	3387.68
2269.599	215.4844	227.7	3387.69
2269.599	218.375	0.0	3387.69
2269.599	220.4844	92.55	3387.69
2269.6	222.4375	89.675	3387.69
2269.6	224.4062	91.95	3387.69
2269.6	226.3906	102.1	3387.69
2269.6	228.2812	104.5	3387.69
2269.601	230.25	106.3	3387.68
2269.601	238.8594	0.0	3387.68
2269.601	233.4688	276.575	3387.68
2269.602	235.4375	281.175	3387.68
2269.602	239.4219	309.7	3387.69
2269.602	241.4062	323.45	3387.69
2269.602	243.4062	322.0	3387.69
2269.603	245.4062	316.95	3387.69
2269.603	247.4219	313.175	3387.69
2269.603	256.9219	0.0	3387.69
2269.604	251.5312	305.3	3387.68
2269.604	261.0	0.0	3387.68
2269.604	263.0312	0.0	3387.68
2269.604	265.0156	0.0	3387.68
2269.605	259.5938	0.0	3387.68
2269.605	263.6406	296.125	3387.69
2269.605	265.3125	0.0	3387.69
2269.606	267.3281	777.125	3387.69
2269.606	269.3281	767.675	3387.69
2269.606	271.3594	758.625	3387.69
2269.606	273.6875	0.0	3387.69
2269.607	283.2188	0.0	3387.69
2269.607	277.4062	798.275	3387.69
2269.607	279.4531	790.85	3387.69
2269.607	281.4531	0.0	3387.69
2269.608	283.4844	784.6	3387.68
2269.608	287.5	781.425	3387.69
2269.608	289.5156	777.025	3387.69
2269.609	291.8281	312.275	3387.69
2269.609	293.8594	301.425	3387.69
2269.609	295.8594	292.35	3387.69
2269.609	297.9375	284.325	3387.69
2269.61	299.9219	276.725	3387.69
2269.61	301.9844	269.875	3387.69
2269.61	304.0156	263.475	3387.69
2269.61	306.0156	258.025	3387.69
2269.611	308.0156	278.9	3387.68
2269.611	312.0781	261.075	3387.69
2269.611	314.0938	251.45	3387.69
2269.612	316.125	242.725	3387.69
2269.612	318.2031	234.85	3387.69
2269.612	320.2031	227.5	3387.69
2269.612	322.2344	221.0	3387.69
2269.613	324.1875	215.35	3387.69
2269.613	326.2188	209.975	3387.69
2269.613	328.2656	205.025	3387.69
2269.614	330.2812	201.025	3387.68
2269.614	339.5938	0.0	3387.68
2269.617	356.4219	175.8	3387.68
2269.617	358.4062	175.5	3387.68
2269.617	0.4375	175.5	3387.68
2269.618	2.4688	175.525	3387.68
2269.618	4.4531	175.925	3387.68
2269.618	6.4531	176.4	3387.68
2269.618	8.4688	177.425	3387.68
2269.619	10.4688	178.625	3387.68
2269.619	12.4688	179.85	3387.68
2269.619	14.4375	181.45	3387.68
2269.619	23.5938	0.0	3387.68
2269.62	27.6094	0.0	3387.69
2269.62	29.625	0.0	3387.69
2269.62	31.6406	0.0	3387.69
2269.621	33.6406	0.0	3387.68
2269.621	35.6562	0.0	3387.68
2269.621	37.6406	0.0	3387.68
2269.621	32.5938	0.0	3387.68
2269.622	41.6562	0.0	3387.68
2269.622	36.4688	198.35	3387.68
2269.622	38.4688	188.775	3387.68
2269.622	40.5156	186.875	3387.68
2269.623	44.5	190.325	3387.69
2269.623	46.4219	202.6	3387.69
2269.624	48.4062	210.5	3387.68
2269.624	50.3594	219.35	3387.68
2269.624	52.3594	230.15	3387.68
2269.624	54.3438	234.575	3387.68
2269.625	56.3125	250.075	3387.68
2269.625	58.2812	264.2	3387.68
2269.625	60.2656	280.425	3387.68
2269.625	62.1719	328.075	3387.68
2269.625	64.1406	359.875	3387.68
2269.626	68.1094	425.825	3387.69
2269.626	77.7188	0.0	3387.69
2269.627	72.0781	490.3	3387.68
2269.627	74.0625	0.0	3387.68
2269.627	76.0	0.0	3387.68
2269.627	85.7344	0.0	3387.68
2269.628	79.9531	901.35	3387.68
2269.628	81.9844	831.075	3387.68
2269.628	91.9219	0.0	3387.68
2269.628	86.1562	849.9	3387.68
2269.629	88.1875	832.2	3387.68
2269.629	92.2188	830.675	3387.69
2269.629	94.2656	0.0	3387.69
2269.63	96.25	739.475	3387.68
2269.63	98.2969	732.05	3387.68
2269.63	100.2969	733.625	3387.68
2269.63	102.3438	738.7	3387.68
2269.631	104.3594	660.875	3387.68
2269.631	106.3281	655.575	3387.68
2269.631	108.3594	572.25	3387.68
2269.631	110.3906	520.675	3387.68
2269.632	112.4219	476.375	3387.68
2269.632	116.5156	406.975	3387.69
2269.632	118.5625	379.925	3387.69
2269.633	120.5938	357.075	3387.69
2269.633	122.6094	337.925	3387.69
2269.633	124.6719	320.95	3387.69
2269.633	126.6875	305.875	3387.69
2269.634	128.75	292.475	3387.68
2269.634	130.7969	280.275	3387.68
2269.634	132.8281	269.9	3387.68
2269.635	134.875	260.675	3387.68
2269.635	136.9062	251.95	3387.68
2269.635	140.9375	236.675	3387.69
2269.635	142.9844	230.275	3387.69
2269.636	145.0312	224.55	3387.69
2269.636	147.0781	219.45	3387.69
2269.636	149.0625	214.675	3387.69
2269.637	151.1094	210.25	3387.68
2269.637	153.125	206.25	3387.68
2269.637	155.125	202.8	3387.68
2269.637	157.0938	199.525	3387.68
2269.638	159.1562	196.925	3387.68
2269.638	161.1719	194.35	3387.68
2269.638	165.1875	190.275	3387.69
2269.639	167.1875	188.625	3387.69
2269.639	169.2188	187.2	3387.69
2269.639	171.2031	186.175	3387.69
2269.639	173.1875	185.4	3387.69
2269.64	175.2656	184.85	3387.68
2269.64	177.25	184.5	3387.68
2269.64	179.3281	184.325	3387.68
2269.64	181.3438	184.475	3387.68
2269.641	183.3438	184.675	3387.68
2269.641	185.3438	185.15	3387.68
2269.641	189.375	187.0	3387.69
2269.642	191.3594	188.1	3387.69
2269.642	193.3438	189.625	3387.69
2269.642	195.4219	191.25	3387.69
2269.642	197.4062	193.275	3387.69
2269.643	199.4062	195.675	3387.68
2269.643	201.4062	198.125	3387.68
2269.643	203.2969	200.8	3387.68
2269.644	205.2812	204.275	3387.68
2269.644	207.2656	207.95	3387.68
2269.644	209.2812	211.95	3387.68
2269.644	213.2344	221.125	3387.69
2269.645	215.2188	226.575	3387.69
2269.645	218.0781	0.0	3387.69
2269.645	220.1719	92.775	3387.69
2269.645	222.25	89.95	3387.69
2269.646	224.1406	0.0	3387.69
2269.646	226.0781	101.6	3387.69
2269.646	228.0781	104.325	3387.69
2269.647	230.0	106.1	3387.68
2269.647	238.5938	0.0	3387.68
2269.647	233.2031	275.775	3387.68
2269.648	237.1875	290.425	3387.69
2269.648	239.1406	307.5	3387.69
2269.648	241.1562	322.5	3387.69
2269.648	243.125	322.775	3387.69
2269.649	245.1406	317.425	3387.69
2269.649	247.1719	312.925	3387.69
2269.649	249.1875	317.25	3387.69
2269.649	251.2812	307.975	3387.69
2269.65	260.7656	0.0	3387.68
2269.65	262.7656	0.0	3387.68
2269.65	264.7812	0.0	3387.68
2269.651	261.3438	304.025	3387.69
2269.651	263.3281	296.475	3387.69
2269.651	265.0625	0.0	3387.69
2269.651	267.0625	782.3	3387.69
2269.652	269.0938	768.8	3387.69
2269.652	271.0938	759.725	3387.69
2269.652	273.4062	0.0	3387.69
2269.652	282.9531	0.0	3387.69
2269.653	277.1562	798.925	3387.68
2269.653	279.2188	785.95	3387.68
2269.653	281.2188	796.25	3387.68
2269.654	285.2344	781.725	3387.69
2269.654	287.25	780.625	3387.69
2269.654	289.2969	780.05	3387.69
2269.654	291.5781	0.0	3387.69
2269.655	293.625	302.625	3387.69
2269.655	295.6406	293.075	3387.69
2269.655	297.7031	285.025	3387.69
2269.656	299.6875	277.575	3387.68
2269.656	301.7188	270.825	3387.68
2269.656	303.7656	264.45	3387.68
2269.656	305.7812	258.625	3387.68
2269.657	309.7656	272.95	3387.69
2269.657	311.8125	262.675	3387.69
2269.657	313.8594	252.675	3387.69
2269.657	315.9219	243.6	3387.69
2269.658	317.9375	235.675	3387.69
2269.658	319.9844	228.6	3387.69
2269.658	321.9688	222.025	3387.69
2269.659	323.9844	216.125	3387.69
2269.659	325.9688	210.775	3387.69
2269.659	327.9844	205.725	3387.69
2269.659	330.0625	201.525	3387.69
2269.663	358.1719	175.5	3387.68
2269.663	0.1875	175.425	3387.68
2269.663	2.1719	175.7	3387.68
2269.664	4.1875	175.95	3387.68
2269.664	6.2031	176.525	3387.68
2269.664	8.1875	177.3	3387.68
2269.664	10.1875	178.375	3387.68
2269.665	12.2031	179.65	3387.68
2269.665	14.2188	181.1	3387.68
2269.665	23.375	0.0	3387.68
2269.666	25.3906	0.0	3387.68
2269.666	29.375	0.0	3387.68
2269.666	31.3906	0.0	3387.68
