40.922	44.6406	189.775	2982.11
40.923	46.5312	202.8	2982.04
40.923	48.3906	210.375	2982.04
40.923	50.2344	219.025	2982.04
40.924	52.1406	228.875	2981.97
40.924	54.0312	237.075	2981.97
40.924	55.9219	246.65	2981.97
40.924	57.7812	259.95	2981.97
40.924	59.6406	274.675	2981.97
40.925	63.3281	0.0	2982.16
40.925	65.2188	369.05	2982.16
40.925	67.0469	428.325	2982.16
40.926	68.9688	427.15	2982.09
40.926	70.8125	476.925	2982.09
40.926	72.7031	499.975	2982.09
40.927	74.5625	601.125	2982.02
40.927	76.3906	0.0	2982.02
40.927	78.2812	0.0	2982.02
40.927	80.1875	906.975	2982.02
40.928	82.3125	839.95	2981.94
40.928	86.0781	851.375	2982.21
40.928	88.0	835.75	2982.21
40.929	89.9219	834.6	2982.14
40.929	91.8594	831.425	2982.14
40.929	93.7656	844.95	2982.14
40.929	95.6875	728.025	2982.14
40.93	105.3594	0.0	2982.07
40.93	99.5156	730.7	2982.07
40.93	101.4531	739.2	2982.07
40.93	103.3594	727.575	2982.07
40.931	105.2969	656.65	2981.99
40.931	109.0781	555.525	2982.26
40.931	111.0312	507.75	2982.26
40.932	112.9531	467.625	2982.19
40.932	114.9062	432.375	2982.19
40.932	116.8281	403.5	2982.19
40.932	118.7812	378.45	2982.19
40.933	120.6719	356.6	2982.12
40.933	122.6094	338.975	2982.12
40.933	124.5625	322.2	2982.12
40.934	126.5	307.825	2982.04
40.934	128.4062	294.85	2982.04
40.934	132.2969	273.2	2982.31
40.934	134.2188	263.6	2982.31
40.935	136.1875	255.475	2982.24
40.935	138.1094	247.6	2982.24
40.935	140.0312	240.175	2982.24
40.935	141.9219	234.225	2982.24
40.936	143.9062	227.975	2982.17
40.936	145.7969	222.65	2982.17
40.936	147.7344	217.825	2982.17
40.937	149.6406	213.3	2982.09
40.937	151.5938	209.35	2982.09
40.937	155.3281	202.625	2982.36
40.938	157.25	199.55	2982.29
40.938	159.2031	196.825	2982.29
40.938	161.1094	194.475	2982.29
40.938	163.0156	192.4	2982.29
40.939	164.9062	190.75	2982.22
40.939	166.8125	189.25	2982.22
40.939	168.75	187.75	2982.22
40.939	170.6719	186.75	2982.22
40.94	172.5469	185.9	2982.14
40.94	174.4688	185.3	2982.14
40.94	178.3125	184.45	2982.41
40.941	180.25	184.5	2982.34
40.941	182.1406	184.725	2982.34
40.941	184.0938	185.025	2982.34
40.941	186.0	185.45	2982.34
40.942	187.8906	186.475	2982.27
40.942	189.7969	187.35	2982.27
40.942	191.7344	188.35	2982.27
40.942	193.625	189.85	2982.27
40.943	195.5469	191.4	2982.19
40.943	197.4219	193.475	2982.19
40.943	201.2188	197.8	2982.46
40.944	203.0156	200.525	2982.39
40.944	204.8906	203.8	2982.39
40.944	206.8125	206.95	2982.39
40.944	208.6719	210.875	2982.39
40.945	210.5781	214.85	2982.32
40.945	212.4844	219.175	2982.32
40.945	214.375	224.475	2982.32
40.945	216.25	230.025	2982.32
40.946	218.1562	236.175	2982.24
40.946	220.0312	242.625	2982.24
40.947	223.8594	235.475	2982.44
40.947	225.7812	227.5	2982.44
40.947	227.6562	241.075	2982.44
40.947	229.5781	249.525	2982.44
40.947	231.4688	261.175	2982.44
40.948	233.3281	276.35	2982.37
40.948	235.2188	277.25	2982.37
40.948	237.1094	288.225	2982.37
40.949	238.9844	305.6	2982.3
40.949	240.8594	318.125	2982.3
40.949	242.75	324.35	2982.3
40.95	246.5781	314.775	2982.49
40.95	248.5	314.825	2982.49
40.95	250.4844	313.725	2982.49
40.95	259.9219	0.0	2982.49
40.951	261.7656	0.0	2982.42
40.951	263.6719	0.0	2982.42
40.951	265.5938	0.0	2982.42
40.951	260.0469	299.125	2982.42
40.952	261.9531	302.35	2982.35
40.952	263.875	294.775	2982.35
40.952	265.4375	0.0	2982.35
40.953	269.2812	769.675	2982.54
40.953	271.1875	759.85	2982.54
40.953	273.4531	0.0	2982.54
40.953	282.8594	0.0	2982.54
40.954	276.9531	800.3	2982.47
40.954	278.8906	788.8	2982.47
40.954	280.7812	809.05	2982.47
40.954	282.7188	785.725	2982.47
40.955	284.6094	781.675	2982.4
40.955	286.5312	781.675	2982.4
40.955	288.4688	782.425	2982.4
40.956	292.5781	308.075	2982.59
40.956	294.5	299.15	2982.59
40.956	296.4219	290.75	2982.59
40.957	298.3594	282.8	2982.52
40.957	300.2812	275.875	2982.52
40.957	302.1875	269.6	2982.52
40.957	304.1094	263.65	2982.52
40.957	306.0625	258.425	2982.52
40.958	307.9375	278.75	2982.45
40.958	309.8281	273.075	2982.45
40.958	311.7969	263.3	2982.45
40.959	315.6562	245.325	2982.64
40.959	317.5938	237.375	2982.64
40.959	319.5312	229.95	2982.64
40.96	321.4531	223.925	2982.57
40.96	323.3281	218.225	2982.57
40.96	325.2344	212.8	2982.57
40.96	327.1719	208.075	2982.57
40.961	329.0938	203.675	2982.5
40.961	330.9844	200.05	2982.5
40.961	340.1875	0.0	2982.5
40.961	334.8594	193.55	2982.5
40.964	355.8125	176.025	2982.55
40.964	357.7656	175.6	2982.55
40.965	359.6719	175.625	2982.47
40.965	1.5469	175.625	2982.47
40.965	3.4531	175.9	2982.47
40.965	5.375	176.275	2982.47
40.966	7.2188	177.05	2982.4
40.966	9.1406	177.925	2982.4
40.966	11.0781	178.95	2982.4
40.967	12.9844	180.2	2982.33
40.967	14.8906	181.775	2982.33
40.967	25.7969	0.0	2982.6
40.967	27.7031	0.0	2982.6
40.968	29.6094	0.0	2982.52
40.968	31.5312	0.0	2982.52
40.968	33.4375	0.0	2982.52
40.969	28.2969	0.0	2982.45
40.969	37.2344	0.0	2982.45
40.969	39.125	0.0	2982.45
40.969	41.0312	0.0	2982.45
40.97	35.7031	201.35	2982.38
40.97	37.6406	193.325	2982.38
40.97	41.4844	189.35	2982.65
40.971	43.3594	188.55	2982.57
40.971	45.2188	192.675	2982.57
40.971	47.0781	205.35	2982.57
40.971	48.9688	213.15	2982.57
40.972	50.8594	221.825	2982.5
40.972	52.7188	232.275	2982.5
40.972	54.6406	238.725	2982.5
40.972	56.5	251.325	2982.5
40.973	58.3906	265.2	2982.43
40.973	60.25	280.1	2982.43
40.973	63.9375	357.6	2982.7
40.974	65.7969	0.0	2982.62
40.974	67.6719	427.525	2982.62
40.974	77.1875	0.0	2982.62
40.974	71.4375	486.925	2982.62
40.975	73.3125	0.0	2982.55
40.975	75.1875	0.0	2982.55
40.975	77.0	0.0	2982.55
40.975	78.9062	913.9	2982.55
40.976	80.8281	0.0	2982.48
40.976	90.7031	0.0	2982.48
40.977	86.75	845.05	2982.67
40.977	88.6562	833.85	2982.67
40.977	90.5625	833.575	2982.67
40.977	92.4844	830.45	2982.67
40.977	94.4219	0.0	2982.67
40.978	96.3281	733.95	2982.6
40.978	98.2344	737.875	2982.6
40.978	100.1875	733.55	2982.6
40.978	102.0781	741.825	2982.6
40.979	104.0156	672.075	2982.53
40.979	105.9375	656.3	2982.53
40.98	109.75	538.225	2982.72
40.98	111.7031	493.4	2982.72
40.98	113.6406	454.9	2982.72
40.98	115.5625	421.6	2982.72
40.981	117.4688	394.475	2982.65
40.981	119.4375	370.575	2982.65
40.981	121.3594	350.55	2982.65
40.981	123.2969	332.275	2982.65
40.981	125.2344	316.625	2982.65
40.982	127.1562	303.125	2982.58
40.982	129.0938	290.625	2982.58
40.983	133.0156	269.5	2982.77
40.983	134.9375	260.95	2982.77
40.983	136.8594	252.45	2982.77
40.983	138.7812	245.05	2982.77
40.984	140.6875	238.025	2982.7
40.984	142.6562	231.95	2982.7
40.984	144.5625	225.925	2982.7
40.984	146.5156	221.0	2982.7
40.985	148.4219	216.225	2982.63
40.985	150.3438	211.925	2982.63
40.985	152.2969	208.275	2982.63
40.986	156.0312	201.425	2982.82
40.986	158.0	198.3	2982.82
40.986	159.8906	196.0	2982.82
40.986	161.8125	193.7	2982.82
40.987	163.7031	191.7	2982.75
40.987	165.6719	190.025	2982.75
40.987	167.5469	188.45	2982.75
40.987	169.4688	187.4	2982.75
40.988	171.375	186.575	2982.68
40.988	173.2812	185.7	2982.68
40.988	175.1719	184.875	2982.68
40.989	179.0938	184.55	2982.87
40.989	180.9844	184.475	2982.87
40.989	182.8906	184.85	2982.87
40.99	184.8438	185.15	2982.8
40.99	186.6875	185.875	2982.8
40.99	188.6094	186.675	2982.8
40.99	190.5625	187.9	2982.8
40.991	192.4375	189.15	2982.73
40.991	194.3281	190.375	2982.73
40.991	196.2656	192.225	2982.73
40.991	198.125	194.25	2982.73
40.992	201.9688	198.8	2982.92
40.992	203.7656	201.65	2982.92
40.992	205.625	204.925	2982.92
40.993	207.5625	208.425	2982.85
40.993	209.4219	212.425	2982.85
40.993	211.3125	216.425	2982.85
40.993	213.2344	221.15	2982.85
40.994	215.0938	226.45	2982.78
40.994	217.0312	232.375	2982.78
40.994	218.8906	238.925	2982.78
40.994	220.7656	245.7	2982.78
40.995	224.5938	232.075	2982.97
40.995	226.5312	224.525	2982.97
40.995	228.4375	243.625	2982.97
40.996	230.2969	253.55	2982.9
40.996	232.2031	264.625	2982.9
40.996	234.1875	0.0	2982.9
40.996	235.9844	284.4	2982.9
40.997	237.8438	299.175	2982.83
40.997	239.7344	312.3	2982.83
40.997	241.6094	324.125	2982.83
40.997	243.5312	322.4	2982.83
40.998	247.3594	313.175	2983.02
40.998	249.2812	318.0	2983.02
40.998	251.2188	306.575	2983.02
40.999	260.625	0.0	2982.95
40.999	262.5469	0.0	2982.95
40.999	264.4688	0.0	2982.95
41.0	266.3594	0.0	2982.88
41.0	260.8125	299.875	2982.88
41.0	262.7344	300.825	2982.88
41.0	272.1562	0.0	2982.88
41.0	274.0	0.0	2982.88
41.001	270.0625	765.475	2983.07
41.001	271.9688	762.8	2983.07
41.001	274.2031	295.1	2983.07
41.002	275.8125	0.0	2983.0
41.002	277.7188	795.35	2983.0
41.002	279.6406	794.925	2983.0
41.003	281.5625	0.0	2982.93
41.003	283.5	786.1	2982.93
41.003	285.4062	783.975	2982.93
41.003	287.3281	781.675	2982.93
41.004	289.2188	781.15	2982.86
41.004	293.3594	304.4	2983.12
41.004	295.2812	295.225	2983.12
41.005	297.2344	287.05	2983.05
41.005	299.1406	279.825	2983.05
41.005	301.0625	272.8	2983.05
41.005	303.0	266.8	2983.05
41.006	304.9375	261.425	2982.98
41.006	306.8125	0.0	2982.98
41.006	308.7188	279.125	2982.98
41.006	310.6875	268.8	2982.98
41.007	312.6094	258.9	2982.91
41.007	316.4688	241.65	2983.17
41.007	318.4219	234.275	2983.17
41.008	320.375	227.625	2983.1
41.008	322.25	221.325	2983.1
41.008	324.1406	215.8	2983.1
41.008	326.0312	210.775	2983.1
41.009	327.9688	205.95	2983.03
41.009	329.9062	202.025	2983.03
41.009	331.9062	0.0	2983.03
41.01	333.7656	195.275	2982.96
41.01	335.7188	192.3	2982.96
41.013	356.6875	175.85	2983.01
41.013	358.5938	175.7	2983.01
41.013	0.4688	175.625	2983.01
41.013	2.3594	175.775	2983.01
41.014	4.2656	176.0	2982.93
41.014	6.1562	176.55	2982.93
41.014	8.0781	177.375	2982.93
41.014	10.0	178.425	2982.93
41.015	11.8906	179.575	2982.86
41.015	13.8438	180.925	2982.86
41.015	15.7344	182.175	2982.86
41.016	26.6562	0.0	2983.06
41.016	28.5625	0.0	2983.06
41.016	30.4688	0.0	2983.06
41.016	32.3906	0.0	2983.06
41.017	27.3438	0.0	2982.98
41.017	36.1875	0.0	2982.98
41.017	38.125	0.0	2982.98
41.017	32.9844	0.0	2982.98
41.018	41.9062	0.0	2982.91
41.018	36.5781	198.3	2982.91
41.018	38.5469	188.875	2982.91
41.019	49.5156	0.0	2983.11
41.019	51.4219	0.0	2983.11
41.019	46.125	201.1	2983.11
41.019	47.9844	209.0	2983.11
41.02	49.8281	217.125	2983.03
41.02	51.7031	226.35	2983.03
41.02	53.5781	236.55	2983.03
41.02	55.4844	243.675	2983.03
41.021	57.3438	257.575	2982.96
41.021	59.25	271.825	2982.96
41.021	61.125	285.8	2982.96
41.022	64.8281	366.375	2983.16
41.022	66.6562	425.125	2983.16
41.022	68.5625	426.35	2983.16
41.023	70.4375	0.0	2983.08
41.023	72.3125	493.675	2983.08
41.023	74.2031	0.0	2983.08
41.023	76.0625	667.975	2983.08
41.023	85.7188	0.0	2983.08
41.024	79.7969	900.425	2983.01
41.024	81.7344	834.225	2983.01
41.024	91.5781	0.0	2983.01
41.025	87.6406	831.775	2983.21
41.025	89.5625	834.225	2983.21
41.025	91.4531	834.275	2983.21
41.026	93.3906	831.575	2983.13
41.026	95.3125	722.9	2983.13
41.026	97.2188	736.3	2983.13
41.026	99.1562	737.475	2983.13
41.027	101.0781	737.3	2983.06
41.027	103.0	734.7	2983.06
41.027	104.9375	655.6	2983.06
41.027	106.7812	0.0	2983.06
41.028	110.6719	516.475	2983.26
41.028	112.5781	473.975	2983.26
41.028	114.5312	439.1	2983.26
41.029	116.4531	408.475	2983.18
41.029	118.4062	382.225	2983.18
41.029	120.3281	360.475	2983.18
41.029	122.2812	341.525	2983.18
41.03	124.2188	324.8	2983.11
41.03	126.1562	310.0	2983.11
41.03	128.0469	296.675	2983.11
41.03	130.0	285.35	2983.11
41.031	133.9219	265.2	2983.31
41.031	135.8438	256.95	2983.31
41.031	137.7656	248.875	2983.31
41.032	139.6875	241.45	2983.23
41.032	141.6406	235.075	2983.23
41.032	143.5469	229.075	2983.23
41.033	145.4688	223.55	2983.16
41.033	147.4062	218.425	2983.16
41.033	149.3594	214.1	2983.16
41.033	151.2344	210.05	2983.16
41.033	153.2031	206.475	2983.16
41.034	156.9375	200.1	2983.36
41.034	158.8906	197.175	2983.36
41.035	160.7969	194.85	2983.28
41.035	162.7031	192.8	2983.28
41.035	164.625	191.075	2983.28
41.035	166.5625	189.5	2983.28
41.036	168.4375	187.9	2983.21
41.036	170.3594	186.975	2983.21
41.036	172.25	186.0	2983.21
41.036	174.2031	185.325	2983.21
41.037	176.0938	184.8	2983.14
41.037	179.9688	184.575	2983.41
41.037	181.8906	184.65	2983.41
41.038	183.7812	184.925	2983.33
41.038	185.7344	185.525	2983.33
41.038	187.6406	186.175	2983.33
41.038	189.5469	187.15	2983.33
41.039	191.4219	188.2	2983.26
41.039	193.3125	189.675	2983.26
41.039	195.2188	191.225	2983.26
41.039	197.1719	193.0	2983.26
41.04	199.0312	195.125	2983.19
41.04	202.7812	200.225	2983.46
41.04	204.6562	203.25	2983.46
41.041	206.5625	206.6	2983.38
41.041	208.4688	210.325	2983.38
41.041	210.3281	214.35	2983.38
41.041	212.2188	218.525	2983.38
41.042	214.125	223.6	2983.31
41.042	215.9844	229.425	2983.31
41.042	217.8906	235.225	2983.31
41.043	219.7969	241.925	2983.24
41.043	221.6719	245.4	2983.24
41.043	225.5469	228.4	2983.51
41.043	227.4531	0.0	2983.51
41.044	229.3125	249.325	2983.43
41.044	231.2031	259.1	2983.43
41.044	233.0781	273.625	2983.43
41.045	234.9844	276.05	2983.36
41.045	236.8594	287.4	2983.36
41.045	238.75	303.8	2983.36
41.045	240.6719	319.75	2983.36
41.046	242.5312	325.1	2983.29
41.046	244.4375	319.8	2983.29
41.046	255.7969	0.0	2983.55
41.047	250.1875	315.525	2983.48
41.047	252.1719	307.075	2983.48
41.047	261.5312	0.0	2983.48
41.047	263.4375	0.0	2983.48
41.048	265.3438	0.0	2983.41
41.048	259.8125	301.7	2983.41
41.048	261.6875	0.0	2983.41
41.048	263.6406	296.65	2983.41
41.049	265.2188	0.0	2983.34
41.049	267.1406	782.85	2983.34
41.049	270.9688	761.125	2983.6
41.05	272.8594	0.0	2983.53
41.05	282.6562	0.0	2983.53
41.05	276.7188	806.05	2983.53
41.05	278.6406	791.675	2983.53
41.051	280.5625	807.725	2983.46
41.051	282.5	786.9	2983.46
41.051	284.3906	783.075	2983.46
41.051	286.3281	781.3	2983.46
41.052	288.2344	781.975	2983.39
41.052	290.1562	778.225	2983.39
41.052	294.2812	299.8	2983.65
41.053	296.2031	291.25	2983.58
41.053	298.125	283.7	2983.58
41.053	300.0625	276.65	2983.58
41.053	301.9688	270.05	2983.58
41.054	303.9219	264.3	2983.51
41.054	305.8281	258.725	2983.51
41.054	307.6875	278.7	2983.51
41.054	309.6094	273.825	2983.51
41.055	311.5781	263.875	2983.44
41.055	313.5312	254.375	2983.44
41.056	317.375	237.825	2983.63
41.056	319.2969	230.85	2983.63
41.056	321.25	224.625	2983.63
41.056	323.1094	218.65	2983.63
41.056	325.0469	213.35	2983.63
41.057	326.9375	208.425	2983.56
41.057	328.9062	204.05	2983.56
41.057	330.8125	200.2	2983.56
41.058	339.9844	0.0	2983.49
41.058	334.625	193.7	2983.49
41.058	336.6094	190.975	2983.49
41.061	355.6094	176.15	2983.54
41.061	357.5312	175.675	2983.54
41.061	359.4375	175.625	2983.54
41.061	1.3906	175.55	2983.54
41.062	3.2188	175.825	2983.46
41.062	5.1719	176.275	2983.46
41.062	7.0469	176.925	2983.46
41.062	8.9531	177.85	2983.46
41.063	10.8906	178.825	2983.39
41.063	12.8125	180.175	2983.39
41.063	14.7031	181.75	2983.39
41.064	25.6406	0.0	2983.59
41.064	27.5469	0.0	2983.59
41.064	29.4375	0.0	2983.59
41.064	31.3594	0.0	2983.59
41.065	33.2656	0.0	2983.51
41.065	35.2656	0.0	2983.51
41.065	37.0625	0.0	2983.51
41.066	38.9531	0.0	2983.44
41.066	40.875	0.0	2983.44
41.066	35.5469	202.075	2983.44
41.066	37.4688	193.9	2983.44
41.067	41.2812	188.825	2983.64
41.067	43.2031	190.95	2983.64
41.067	45.0781	192.2	2983.64
41.067	46.9219	204.65	2983.64
41.068	48.8438	212.55	2983.56
41.068	50.7031	221.1	2983.56
41.068	52.5469	231.275	2983.56
41.069	54.4531	237.75	2983.49
41.069	56.3125	249.825	2983.49
41.069	58.1562	263.55	2983.49
41.069	60.0781	278.4	2983.49
41.07	63.7969	355.725	2983.69
41.07	65.6562	371.725	2983.69
41.07	67.5156	428.375	2983.69
41.071	77.0469	0.0	2983.61
41.071	71.2969	485.45	2983.61
41.071	73.1562	0.0	2983.61
41.071	75.0312	0.0	2983.61
41.072	76.875	0.0	2983.54
41.072	78.75	912.125	2983.54
41.072	80.6719	0.0	2983.54
41.072	90.5156	0.0	2983.54
41.073	86.5781	844.975	2983.74
41.073	88.4844	834.9	2983.74
41.073	90.3906	833.45	2983.74
41.074	92.3125	832.85	2983.66
41.074	94.2344	0.0	2983.66
41.074	96.1719	732.9	2983.66
41.074	105.8438	0.0	2983.66
41.075	100.0	732.175	2983.59
41.075	101.9062	741.6	2983.59
41.075	103.8594	0.0	2983.59
41.076	105.7656	658.025	2983.52
41.076	109.5938	542.9	2983.79
41.076	111.5156	497.4	2983.79
41.076	113.4531	458.25	2983.79
41.077	115.375	424.6	2983.71
41.077	117.3438	396.75	2983.71
41.077	119.2656	372.65	2983.71
41.077	121.2188	352.15	2983.71
41.078	123.1094	333.85	2983.64
41.078	125.0625	318.125	2983.64
41.078	126.9688	304.1	2983.64
41.079	128.9219	291.7	2983.57
41.079	132.7812	270.325	2983.84
41.079	134.7344	261.675	2983.84
41.08	136.6406	253.5	2983.76
41.08	138.625	245.575	2983.76
41.08	140.5469	238.675	2983.76
41.08	142.4375	232.55	2983.76
41.081	144.3906	226.325	2983.69
41.081	146.3281	221.325	2983.69
41.081	148.2344	216.625	2983.69
41.081	150.1719	212.175	2983.69
41.082	152.0625	208.55	2983.62
41.082	155.8438	201.675	2983.89
41.082	157.8125	198.5	2983.89
41.083	159.7188	196.25	2983.81
41.083	161.625	193.9	2983.81
41.083	163.5156	191.825	2983.81
41.083	165.4531	190.175	2983.81
41.084	167.3281	188.75	2983.74
41.084	169.2656	187.45	2983.74
41.084	171.1562	186.575	2983.74
41.084	173.1094	185.75	2983.74
41.085	175.0	185.075	2983.67
41.085	178.9062	184.55	2983.94
41.086	180.8125	184.35	2983.86
41.086	182.7344	184.85	2983.86
41.086	184.5938	185.2	2983.86
41.086	186.5469	185.625	2983.86
41.086	188.4531	186.65	2983.86
41.087	190.2969	187.75	2983.79
41.087	192.2656	188.825	2983.79
41.087	194.1094	190.3	2983.79
41.087	196.0469	191.95	2983.79
41.088	197.9688	193.975	2983.72
41.088	201.7656	198.4	2983.99
41.089	203.5469	201.55	2983.91
41.089	205.4219	204.575	2983.91
41.089	207.3281	208.025	2983.91
41.089	209.2031	211.975	2983.91
41.09	211.1094	216.025	2983.84
41.09	213.0156	220.65	2983.84
41.09	214.8906	225.875	2983.84
41.09	216.7969	231.525	2983.84
41.091	218.6875	237.8	2983.77
41.091	220.5625	244.6	2983.77
41.091	224.4219	233.025	2984.04
41.092	226.3281	225.325	2983.96
41.092	228.2188	243.85	2983.96
41.092	230.0781	252.6	2983.96
41.092	231.9844	263.85	2983.96
41.093	233.8594	275.6	2983.89
41.093	235.7812	282.2	2983.89
41.093	237.625	296.0	2983.89
41.093	239.5156	310.875	2983.89
41.094	241.375	324.075	2983.82
41.094	243.3125	322.85	2983.82
41.094	247.125	313.425	2984.09
41.095	249.0312	312.65	2984.01
41.095	251.0	310.0	2984.01
41.095	260.4062	0.0	2984.01
41.095	262.3125	0.0	2984.01
41.096	264.2344	0.0	2983.94
41.096	258.6406	305.65	2983.94
41.096	260.5938	299.225	2983.94
41.096	262.4531	301.175	2983.94
41.097	264.4062	295.775	2983.87
41.097	266.0	789.3	2983.87
41.097	269.8438	768.125	2984.14
41.098	271.7344	759.45	2984.06
41.098	273.9844	294.45	2984.06
41.098	283.4062	0.0	2984.06
41.099	277.5	798.65	2983.99
41.099	279.4219	791.075	2983.99
41.099	281.3281	796.35	2983.99
41.099	283.25	784.925	2983.99
41.1	285.1719	783.525	2983.92
41.1	287.0625	781.7	2983.92
41.1	288.9688	782.7	2983.92
41.101	293.1094	305.6	2984.11
41.101	295.0469	296.575	2984.11
41.101	296.9844	288.4	2984.11
41.101	298.9062	280.75	2984.11
41.102	300.8125	273.675	2984.04
41.102	302.7188	267.725	2984.04
41.102	304.6719	261.975	2984.04
41.102	306.5781	261.1	2984.04
41.103	308.4531	278.925	2983.97
41.103	310.3906	270.1	2983.97
41.103	312.3438	260.575	2983.97
41.104	316.2188	242.75	2984.16
41.104	318.125	235.55	2984.16
41.104	320.0938	228.2	2984.16
41.104	322.0156	222.2	2984.16
41.105	323.875	216.35	2984.09
41.105	325.7656	211.525	2984.09
41.105	327.7188	206.675	2984.09
41.105	329.6406	202.7	2984.09
41.106	331.5938	198.925	2984.02
41.106	333.4844	0.0	2984.02
41.106	335.375	192.625	2984.02
41.109	356.3906	175.875	2984.07
41.109	358.2656	175.625	2984.07
41.109	0.2188	175.55	2984.07
41.11	2.0938	175.7	2983.99
41.11	4.0156	176.025	2983.99
41.11	5.9062	176.325	2983.99
41.111	7.8125	177.225	2983.92
41.111	9.7188	178.225	2983.92
41.111	11.6094	179.3	2983.92
41.111	13.5	180.575	2983.92
41.112	15.3906	182.25	2983.85
41.112	26.375	0.0	2984.12
41.112	28.2656	0.0	2984.12
41.113	30.1875	0.0	2984.04
41.113	32.0781	0.0	2984.04
41.113	34.0312	0.0	2984.04
41.113	35.8906	0.0	2984.04
41.114	37.8125	0.0	2983.97
41.114	32.6406	0.0	2983.97
41.114	41.625	0.0	2983.97
41.114	36.25	199.025	2983.97
41.115	38.2188	191.125	2983.9
41.115	49.2031	0.0	2984.17
41.115	51.0938	0.0	2984.17
41.116	45.8281	198.2	2984.09
41.116	47.6562	207.6	2984.09
41.116	49.5469	215.8	2984.09
41.116	51.4219	225.075	2984.09
41.117	53.2656	235.1	2984.02
41.117	55.1562	242.15	2984.02
41.117	57.0312	254.8	2984.02
41.117	58.9062	269.25	2984.02
41.118	60.9219	0.0	2983.95
41.118	64.5	364.025	2984.22
41.119	66.3438	0.0	2984.14
41.119	68.2344	425.475	2984.14
41.119	77.7656	0.0	2984.14
41.119	72.0	490.075	2984.14
41.119	73.875	0.0	2984.14
41.12	75.7344	647.1	2984.07
41.12	77.5938	850.65	2984.07
41.12	79.4844	904.65	2984.07
41.12	81.4062	835.375	2984.07
41.121	83.4531	837.725	2984.0
41.121	87.3125	846.05	2984.27
41.122	89.2031	833.4	2984.19
41.122	91.1094	835.675	2984.19
41.122	93.0625	831.15	2984.19
41.122	94.9844	732.85	2984.19
41.123	96.8906	734.35	2984.12
41.123	98.8125	741.425	2984.12
41.123	100.7344	735.625	2984.12
41.123	102.6719	737.475	2984.12
41.124	104.5781	656.125	2984.05
41.124	106.4375	646.65	2984.05
41.124	110.3125	525.0	2984.32
41.125	112.25	482.025	2984.24
41.125	114.1719	445.375	2984.24
41.125	116.1094	414.075	2984.24
41.125	118.0625	387.175	2984.24
41.126	119.9688	364.075	2984.17
41.126	121.8906	345.65	2984.17
41.126	123.8438	328.325	2984.17
41.126	125.7656	313.125	2984.17
41.127	127.7031	299.375	2984.1
41.127	129.6562	287.425	2984.1
41.127	133.5625	267.05	2984.37
41.128	135.4688	258.025	2984.29
41.128	137.4219	250.15	2984.29
41.128	139.3281	242.725	2984.29
41.129	141.2656	236.25	2984.22
41.129	143.2031	230.125	2984.22
41.129	145.1406	224.55	2984.22
41.129	147.0469	219.45	2984.22
41.129	149.0	215.025	2984.22
41.13	150.9219	210.675	2984.15
41.13	152.8594	207.175	2984.15
41.13	156.6094	200.6	2984.42
41.131	158.5312	197.525	2984.34
41.131	160.4688	195.1	2984.34
41.131	162.3281	193.075	2984.34
41.132	164.2656	191.375	2984.27
41.132	166.2188	189.7	2984.27
41.132	168.0938	188.075	2984.27
41.132	170.0156	187.1	2984.27
41.133	171.8906	186.2	2984.2
41.133	173.8438	185.35	2984.2
41.133	175.7188	184.85	2984.2
41.134	179.6406	184.65	2984.39
41.134	181.4844	184.625	2984.39
41.134	183.4531	184.9	2984.39
41.134	185.3594	185.35	2984.39
41.135	187.25	186.15	2984.32
41.135	189.1719	186.9	2984.32
41.135	191.0312	188.075	2984.32
41.135	192.9688	189.5	2984.32
41.136	194.8906	190.875	2984.25
41.136	196.7969	192.85	2984.25
41.136	198.7188	194.725	2984.25
41.137	202.4688	199.625	2984.44
41.137	204.2969	202.625	2984.44
41.137	206.1875	205.8	2984.44
41.137	208.0781	209.475	2984.44
41.138	209.9375	213.55	2984.37
41.138	211.8594	217.65	2984.37
41.138	213.7344	222.475	2984.37
41.138	215.6406	227.875	2984.37
41.139	217.5156	234.05	2984.3
41.139	219.3906	240.65	2984.3
41.139	221.2812	246.65	2984.3
41.14	225.1562	229.85	2984.49
41.14	227.0781	0.0	2984.49
41.14	228.9219	246.2	2984.49
41.14	230.7812	257.175	2984.49
41.141	232.6719	268.375	2984.42
41.141	234.5781	0.0	2984.42
41.141	236.4688	285.675	2984.42
41.142	238.3594	302.45	2984.35
41.142	240.2344	317.25	2984.35
41.142	242.1094	326.25	2984.35
41.142	244.0312	320.725	2984.35
41.143	247.8594	314.35	2984.54
41.143	249.75	319.25	2984.54
41.143	251.7969	304.325	2984.54
41.144	261.1562	0.0	2984.47
41.144	263.0625	0.0	2984.47
41.144	264.9688	0.0	2984.47
41.144	259.4062	301.125	2984.47
41.145	261.3594	297.6	2984.4
41.145	270.7031	0.0	2984.4
41.145	272.6406	0.0	2984.4
41.145	266.7188	792.875	2984.4
41.146	270.5781	763.025	2984.59
41.146	272.4688	777.75	2984.59
41.146	274.7656	293.85	2984.59
41.147	276.3438	806.125	2984.52
41.147	278.25	795.0	2984.52
41.147	280.1562	803.575	2984.52
41.147	282.0781	786.775	2984.52
41.148	284.0156	784.175	2984.45
41.148	285.9062	782.55	2984.45
41.148	287.8438	781.6	2984.45
41.148	289.75	779.425	2984.45
41.149	293.875	301.95	2984.64
41.149	295.8125	292.9	2984.64
41.149	297.7344	285.225	2984.64
41.15	299.6406	278.0	2984.57
41.15	301.5781	271.425	2984.57
41.15	303.4844	265.45	2984.57
41.15	305.4062	259.925	2984.57
41.151	307.2969	281.0	2984.5
41.151	309.2344	276.475	2984.5
41.151	311.1406	266.175	2984.5
41.152	313.0781	256.525	2984.42
41.152	316.9531	239.75	2984.69
41.152	318.875	232.625	2984.69
41.152	320.8125	225.975	2984.69
41.153	322.7188	219.85	2984.62
41.153	324.6406	214.45	2984.62
41.153	326.5312	209.575	2984.62
41.154	328.5	205.05	2984.55
41.154	330.4375	201.0	2984.55
41.154	339.6094	0.0	2984.55
41.154	334.2344	194.475	2984.55
41.155	336.1562	191.675	2984.47
41.157	355.2656	176.175	2984.6
41.157	357.1562	175.75	2984.6
41.158	359.0469	175.7	2984.52
41.158	0.9531	175.575	2984.52
41.158	2.875	175.9	2984.52
41.158	4.7812	176.075	2984.52
41.159	6.6719	176.875	2984.45
41.159	8.5938	177.575	2984.45
41.159	10.4844	178.625	2984.45
41.159	12.375	179.85	2984.45
41.16	14.3125	181.35	2984.38
41.16	25.2344	0.0	2984.65
41.16	27.1406	0.0	2984.65
41.161	29.0312	0.0	2984.57
41.161	30.9375	0.0	2984.57
41.161	32.8438	0.0	2984.57
41.161	27.2656	0.0	2984.57
41.162	36.6719	0.0	2984.5
41.162	38.5781	0.0	2984.5
41.162	33.4531	161.45	2984.5
41.162	35.1562	0.0	2984.5
41.163	37.0938	195.05	2984.43
41.163	40.8906	187.8	2984.7
41.163	42.7969	189.0	2984.7
41.164	44.6875	189.725	2984.62
41.164	46.5312	203.05	2984.62
41.164	48.4375	210.7	2984.62
41.165	50.2969	219.1	2984.55
41.165	52.2031	228.925	2984.55
41.165	61.4844	0.0	2984.55
41.165	55.9375	247.275	2984.55
41.166	57.8281	260.125	2984.48
41.166	59.7031	275.2	2984.48
41.166	63.3906	0.0	2984.74
41.167	65.25	369.525	2984.67
41.167	67.0781	428.7	2984.67
41.167	69.0156	427.825	2984.67
41.167	70.875	477.075	2984.67
41.168	72.7656	0.0	2984.6
41.168	74.6406	606.475	2984.6
41.168	76.4531	0.0	2984.6
41.168	78.3438	0.0	2984.6
41.169	80.2656	904.275	2984.53
41.169	82.375	840.4	2984.53
41.169	86.1719	851.675	2984.79
41.17	88.0938	833.9	2984.72
41.17	90.0156	834.375	2984.72
41.17	91.9531	830.45	2984.72
41.17	93.8438	0.0	2984.72
41.171	95.7969	728.425	2984.65
41.171	105.4688	0.0	2984.65
41.171	99.6406	730.275	2984.65
41.171	101.5469	739.675	2984.65
41.172	103.4844	0.0	2984.58
41.172	105.4062	657.0	2984.58
41.172	109.2031	552.9	2984.84
41.173	111.125	505.75	2984.77
41.173	113.0781	465.25	2984.77
41.173	115.0	430.7	2984.77
41.173	116.9531	400.95	2984.77
41.174	118.8906	376.85	2984.7
41.174	120.7969	355.725	2984.7
41.174	122.75	337.625	2984.7
41.175	124.6719	321.625	2984.63
41.175	126.6094	306.55	2984.63
41.175	128.5469	293.875	2984.63
41.176	132.4375	271.925	2984.82
41.176	134.3594	263.275	2984.82
41.176	136.2969	254.875	2984.82
41.176	138.2344	246.875	2984.82
41.176	140.1719	239.875	2984.82
41.177	142.0781	233.725	2984.75
41.177	144.0156	227.45	2984.75
41.177	145.9375	222.375	2984.75
41.178	147.875	217.275	2984.68
41.178	149.7812	213.025	2984.68
41.178	151.6875	209.125	2984.68
41.179	155.5156	202.4	2984.87
41.179	157.4219	199.275	2984.87
41.179	159.3125	196.775	2984.87
41.179	161.25	194.375	2984.87
41.18	163.1562	192.325	2984.8
41.18	165.0781	190.5	2984.8
41.18	167.0	189.225	2984.8
41.18	168.875	187.75	2984.8
41.181	170.7969	186.75	2984.73
41.181	172.7031	185.825	2984.73
41.181	174.6406	185.2	2984.73
41.182	178.4219	184.45	2984.92
41.182	180.4219	184.5	2984.92
41.182	182.3281	184.75	2984.92
41.182	184.2188	185.05	2984.92
41.183	186.1562	185.675	2984.85
41.183	188.0781	186.475	2984.85
41.183	189.9688	187.45	2984.85
41.183	191.8906	188.6	2984.85
41.184	193.8125	190.0	2984.78
41.184	195.6875	191.675	2984.78
41.184	197.5625	193.625	2984.78
41.185	201.3906	198.025	2984.97
41.185	203.2031	200.675	2984.97
41.185	205.0781	203.975	2984.97
41.185	206.9844	207.2	2984.97
41.186	208.875	211.275	2984.9
41.186	210.7656	215.3	2984.9
41.186	212.6406	219.725	2984.9
41.186	214.5469	224.95	2984.9
41.187	216.4062	230.525	2984.83
41.187	218.3281	236.725	2984.83
41.187	220.2031	243.3	2984.83
41.188	224.0469	234.5	2985.02
41.188	225.9844	226.525	2985.02
41.188	227.8438	241.95	2985.02
41.189	229.7344	250.675	2984.95
41.189	231.625	261.025	2984.95
41.189	233.5156	276.725	2984.95
41.189	235.4062	280.525	2984.95
41.19	237.2656	289.925	2984.88
41.19	239.1562	307.9	2984.88
41.19	241.0469	320.125	2984.88
41.19	242.9531	323.6	2984.88
41.191	246.7656	314.225	2985.07
41.191	256.2188	0.0	2985.07
41.191	250.6875	0.0	2985.07
41.192	260.1094	0.0	2985.0
41.192	261.9688	0.0	2985.0
41.192	263.875	0.0	2985.0
41.192	265.7969	0.0	2985.0
41.193	260.2188	300.65	2984.92
41.193	262.1406	300.8	2984.92
41.193	264.0781	295.3	2984.92
41.193	265.6406	788.4	2984.92
41.194	269.4844	768.85	2985.12
41.194	271.375	759.2	2985.12
41.195	273.6562	0.0	2985.05
41.195	283.0312	0.0	2985.05
41.195	277.1562	800.775	2985.05
41.195	279.0625	787.025	2985.05
41.195	288.7969	0.0	2985.05
41.196	282.9062	786.825	2984.97
41.196	284.8125	783.2	2984.97
41.196	286.7188	782.0	2984.97
41.196	288.625	780.9	2984.97
41.197	292.7812	306.95	2985.17
41.197	294.6875	298.175	2985.17
41.198	296.625	289.825	2985.1
41.198	298.5781	281.9	2985.1
41.198	300.4844	275.0	2985.1
41.198	302.3906	269.0	2985.1
41.199	304.3125	263.025	2985.02
41.199	306.2656	257.725	2985.02
41.199	308.0938	279.025	2985.02
41.199	310.0625	271.4	2985.02
41.2	312.0	261.875	2984.95
41.2	315.8438	244.4	2985.22
41.2	317.7812	236.625	2985.22
41.201	319.7188	229.4	2985.15
41.201	321.6562	223.2	2985.15
41.201	323.5156	217.3	2985.15
41.201	325.4375	212.275	2985.15
41.202	327.375	207.45	2985.07
41.202	329.3281	203.05	2985.07
41.202	331.2031	199.6	2985.07
41.202	333.1094	196.825	2985.07
41.203	335.0469	193.15	2985.0
41.206	357.9688	175.6	2985.05
41.206	359.875	175.65	2985.05
41.206	1.7812	175.625	2985.05
41.206	3.7031	175.9	2985.05
41.207	5.5781	176.325	2984.98
41.207	7.4844	177.2	2984.98
41.207	9.3594	178.15	2984.98
41.208	11.2812	179.15	2984.91
41.208	13.2188	180.425	2984.91
41.208	15.0938	182.025	2984.91
41.208	24.1562	0.0	2984.91
41.209	27.9531	0.0	2985.1
41.209	29.875	0.0	2985.1
41.209	31.7812	0.0	2985.1
41.21	33.6562	0.0	2985.03
41.21	28.4219	0.0	2985.03
41.21	37.4844	0.0	2985.03
41.21	39.3906	0.0	2985.03
41.211	41.3125	0.0	2984.96
41.211	35.9688	201.5	2984.96
41.211	37.9062	192.15	2984.96
41.211	39.8594	184.7	2984.96
41.212	43.5938	190.175	2985.15
41.212	45.5	0.0	2985.15
41.212	47.375	206.6	2985.15
41.213	49.2344	214.375	2985.08
41.213	51.125	223.25	2985.08
41.213	60.3125	0.0	2985.08
41.213	54.8594	239.7	2985.08
41.214	56.75	252.55	2985.01
41.214	58.6406	267.275	2985.01
41.214	60.4844	282.125	2985.01
41.214	62.3281	329.15	2985.01
41.215	66.0625	0.0	2985.2
41.215	67.9219	426.675	2985.2
41.215	77.4844	0.0	2985.2
41.216	71.7031	489.075	2985.13
41.216	73.5625	0.0	2985.13
41.216	75.4531	0.0	2985.13
41.216	77.2969	838.425	2985.13
41.217	79.1719	909.8	2985.05
41.217	81.1094	836.925	2985.05
41.217	90.9531	0.0	2985.05
41.218	92.875	0.0	2984.98
41.218	88.9219	835.25	2985.25
41.218	90.8125	834.575	2985.25
41.219	92.75	833.5	2985.18
41.219	94.7031	0.0	2985.18
41.219	96.5938	734.0	2985.18
41.219	98.5156	736.0	2985.18
41.219	100.4219	735.025	2985.18
41.22	102.3438	741.575	2985.1
41.22	104.2812	664.85	2985.1
41.22	106.2188	655.05	2985.1
41.221	108.0781	585.75	2985.03
41.221	111.9375	486.825	2985.3
41.221	113.8906	449.875	2985.3
41.222	115.8281	416.975	2985.23
41.222	117.7812	390.35	2985.23
41.222	119.6875	367.375	2985.23
41.222	121.625	347.875	2985.23
41.223	123.5781	330.4	2985.15
41.223	125.5	314.575	2985.15
41.223	127.4375	301.15	2985.15
41.223	129.375	289.0	2985.15
41.224	131.3125	278.2	2985.08
41.224	135.1875	259.65	2985.35
41.224	137.1406	251.225	2985.35
41.225	139.0156	243.9	2985.28
41.225	141.0	237.075	2985.28
41.225	142.9062	230.875	2985.28
41.225	144.8594	225.275	2985.28
41.226	146.75	220.325	2985.2
41.226	148.6719	215.5	2985.2
41.226	150.625	211.4	2985.2
41.226	152.5625	207.6	2985.2
41.227	154.4375	204.0	2985.13
41.227	158.2344	198.05	2985.4
41.228	160.1562	195.475	2985.33
41.228	162.0938	193.575	2985.33
41.228	163.9844	191.45	2985.33
41.228	165.8906	189.8	2985.33
41.228	167.8281	188.225	2985.33
41.229	169.7344	187.225	2985.25
41.229	171.5938	186.4	2985.25
41.229	173.5156	185.5	2985.25
41.229	175.4688	184.8	2985.25
41.23	177.3438	184.725	2985.18
41.23	181.2188	184.525	2985.45
41.231	183.1719	184.85	2985.38
41.231	185.0312	185.4	2985.38
41.231	186.9375	186.025	2985.38
41.231	188.8438	186.7	2985.38
41.232	190.7812	188.0	2985.3
41.232	192.7031	189.275	2985.3
41.232	194.5938	190.7	2985.3
41.232	196.5312	192.475	2985.3
41.233	198.4219	194.475	2985.23
41.233	200.2969	196.7	2985.23
41.233	204.0	202.175	2985.5
41.234	205.875	205.25	2985.42
41.234	207.7969	208.875	2985.42
41.234	209.6719	212.65	2985.42
41.234	211.5469	216.95	2985.42
41.235	213.4688	221.85	2985.35
41.235	215.3594	227.05	2985.35
41.235	217.2188	233.025	2985.35
41.235	219.1094	239.375	2985.35
41.236	221.0	246.375	2985.28
41.236	222.9375	239.15	2985.28
41.236	226.7812	224.075	2985.55
41.237	228.6562	245.2	2985.47
41.237	230.5312	255.075	2985.47
41.237	232.4219	265.975	2985.47
41.237	234.3281	0.0	2985.47
41.238	236.2031	285.4	2985.4
41.238	238.0781	301.575	2985.4
41.238	239.9375	314.1	2985.4
41.238	241.8594	325.4	2985.4
41.239	243.75	321.75	2985.33
41.239	245.6875	316.7	2985.33
41.239	256.9688	0.0	2985.6
41.24	251.4688	307.825	2985.52
41.24	260.8438	0.0	2985.52
41.24	262.7656	0.0	2985.52
41.241	264.6875	0.0	2985.45
41.241	259.0938	305.05	2985.45
41.241	261.0781	0.0	2985.45
41.241	262.9375	301.2	2985.45
41.241	272.3125	0.0	2985.45
41.242	274.2188	0.0	2985.38
41.242	268.3438	773.625	2985.38
41.243	272.1875	766.25	2985.57
41.243	274.4062	294.4	2985.57
41.243	276.0469	0.0	2985.57
41.243	277.9531	797.475	2985.57
41.244	279.875	798.525	2985.5
41.244	281.7812	786.225	2985.5
41.244	283.7188	785.3	2985.5
41.244	285.625	783.275	2985.5
41.245	287.5469	781.525	2985.43
41.245	289.4688	779.45	2985.43
41.245	291.6406	0.0	2985.43
41.246	295.5156	294.4	2985.62
41.246	297.4219	286.2	2985.62
41.246	299.3594	279.325	2985.62
41.246	301.2656	272.3	2985.62
41.247	303.2031	266.225	2985.55
41.247	305.1562	260.675	2985.55
41.247	307.0	0.0	2985.55
41.247	308.9219	278.125	2985.55
41.248	310.8594	267.875	2985.48
41.248	312.7812	257.875	2985.48
41.248	314.6875	249.075	2985.48
41.249	318.5938	233.525	2985.67
41.249	320.5156	226.825	2985.67
41.249	322.4375	220.775	2985.67
41.249	324.3438	215.45	2985.67
41.25	326.25	210.4	2985.6
41.25	328.1875	205.55	2985.6
41.25	330.1094	201.65	2985.6
41.251	332.2031	0.0	2985.53
41.251	333.9219	194.975	2985.53
41.251	335.8906	191.975	2985.53
41.251	337.7969	189.375	2985.53
41.254	354.9844	176.025	2985.58
41.254	356.8125	175.925	2985.58
41.254	358.7344	175.725	2985.58
41.254	0.6719	175.625	2985.58
41.255	2.5312	175.775	2985.5
41.255	4.4688	175.975	2985.5
41.255	6.3438	176.5	2985.5
41.255	8.25	177.45	2985.5
41.256	10.1406	178.5	2985.43
41.256	12.0469	179.6	2985.43
41.256	13.9688	181.025	2985.43
41.257	24.9062	0.0	2985.63
41.257	26.8125	0.0	2985.63
41.257	28.7188	0.0	2985.63
41.257	30.625	0.0	2985.63
41.258	32.5312	0.0	2985.55
41.258	34.4531	0.0	2985.55
41.258	36.3281	0.0	2985.55
41.258	38.2344	0.0	2985.55
41.259	33.0938	162.375	2985.48
41.259	42.0625	0.0	2985.48
41.259	36.75	197.975	2985.48
41.26	40.6094	187.05	2985.68
41.26	49.6562	0.0	2985.68
41.26	44.375	190.875	2985.68
41.261	46.2188	201.95	2985.6
41.261	48.1094	209.5	2985.6
41.261	49.9844	217.625	2985.6
41.261	51.8438	227.4	2985.6
41.261	53.75	237.175	2985.6
41.262	55.6094	244.975	2985.53
41.262	57.5	258.125	2985.53
41.262	59.3594	272.675	2985.53
41.263	63.0625	0.0	2985.73
41.263	64.9375	368.075	2985.73
41.263	66.7969	426.0	2985.73
41.264	68.7031	426.05	2985.65
41.264	70.5781	0.0	2985.65
41.264	72.4688	494.475	2985.65
41.264	74.3125	589.725	2985.65
41.265	76.1406	0.0	2985.58
41.265	85.8438	0.0	2985.58
41.265	79.9375	902.05	2985.58
41.265	81.875	830.25	2985.58
41.266	85.8281	844.675	2985.78
41.266	87.7656	844.325	2985.78
41.266	89.6562	834.1	2985.78
41.267	91.5938	835.425	2985.7
41.267	93.5	831.45	2985.7
41.267	95.4375	725.35	2985.7
41.267	97.3438	737.2	2985.7
41.268	99.2656	738.85	2985.63
41.268	101.1875	737.825	2985.63
41.268	103.0938	729.575	2985.63
41.268	105.0625	655.6	2985.63
41.269	108.8281	562.375	2985.82
41.269	110.7656	514.7	2985.82
41.269	112.7188	470.9	2985.82
41.27	114.6562	437.1	2985.75
41.27	116.5938	406.7	2985.75
41.27	118.5469	381.15	2985.75
41.27	120.4688	359.55	2985.75
41.271	122.4219	340.4	2985.68
41.271	124.3438	323.65	2985.68
41.271	126.2656	309.35	2985.68
41.271	128.1875	296.1	2985.68
41.272	132.0938	274.25	2985.87
41.272	134.0156	264.375	2985.87
41.273	135.9375	256.75	2985.8
41.273	137.875	248.375	2985.8
41.273	139.8281	241.0	2985.8
41.273	141.7188	234.75	2985.8
41.274	143.6562	228.425	2985.73
41.274	145.5938	223.25	2985.73
41.274	147.5	218.225	2985.73
41.274	149.4375	213.65	2985.73
41.274	151.375	209.9	2985.73
41.275	155.1719	202.825	2985.92
41.275	157.0781	199.9	2985.92
41.276	158.9844	197.05	2985.85
41.276	160.9375	194.8	2985.85
41.276	162.8438	192.5	2985.85
41.276	164.75	190.95	2985.85
41.277	166.6406	189.475	2985.78
41.277	168.5938	187.85	2985.78
41.277	170.5	186.825	2985.78
41.277	172.3906	185.925	2985.78
41.278	174.2812	185.3	2985.71
41.278	178.125	184.475	2985.97
41.278	180.125	184.525	2985.97
41.279	182.0156	184.8	2985.9
41.279	183.8906	184.925	2985.9
41.279	185.8125	185.425	2985.9
41.279	187.7188	186.4	2985.9
41.28	189.625	187.175	2985.83
41.28	191.5469	188.125	2985.83
41.28	193.4531	189.8	2985.83
41.28	195.3906	191.375	2985.83
41.281	197.2969	193.325	2985.76
41.281	201.0938	197.575	2986.02
41.281	202.9062	200.325	2986.02
41.282	204.7812	203.575	2985.95
41.282	206.6406	206.675	2985.95
41.282	208.5781	210.5	2985.95
41.283	210.4688	214.55	2985.88
41.283	212.3594	218.825	2985.88
41.283	214.2188	224.05	2985.88
41.283	216.1094	229.5	2985.88
41.284	217.9844	235.825	2985.81
41.284	219.9062	242.25	2985.81
41.284	223.75	235.65	2986.07
41.284	225.6562	228.025	2986.07
41.285	227.5469	0.0	2986.0
41.285	229.4062	249.45	2986.0
41.285	231.3438	260.025	2986.0
41.286	233.1875	273.575	2985.93
41.286	235.0938	276.2	2985.93
41.286	236.9688	288.2	2985.93
41.286	238.8438	304.75	2985.93
41.287	240.7188	322.775	2985.86
41.287	242.6094	324.6	2985.86
41.287	246.4688	314.975	2986.12
41.288	255.8906	0.0	2986.05
41.288	250.2812	314.7	2986.05
41.288	259.8281	0.0	2986.05
41.288	261.6562	0.0	2986.05
41.289	263.5625	0.0	2985.98
41.289	265.4688	0.0	2985.98
41.289	259.9219	299.05	2985.98
41.289	261.8281	301.65	2985.98
41.29	263.75	296.15	2985.9
41.29	265.3594	0.0	2985.9
41.29	269.1719	769.675	2986.17
41.291	271.0938	760.625	2986.1
41.291	272.9844	811.275	2986.1
41.291	282.7812	0.0	2986.1
41.291	276.875	804.075	2986.1
41.292	278.7969	790.1	2986.03
41.292	280.6875	808.025	2986.03
41.292	282.5938	787.175	2986.03
41.293	284.5469	783.875	2985.95
41.293	286.4531	780.925	2985.95
41.293	288.3438	781.475	2985.95
41.293	292.4844	308.45	2986.22
41.294	294.4062	299.6	2986.15
41.294	296.3438	290.75	2986.15
41.294	298.2656	283.05	2986.15
41.294	300.1562	276.15	2986.15
41.295	302.1094	269.875	2986.08
41.295	304.0625	264.05	2986.08
41.295	305.9375	258.425	2986.08
41.296	307.8125	278.15	2986.0
41.296	309.7344	273.475	2986.0
41.296	311.6719	263.3	2986.0
41.297	315.5469	245.675	2986.2
41.297	317.4844	237.6	2986.2
41.297	319.4375	230.5	2986.2
41.297	321.3594	224.25	2986.2
41.298	323.25	218.175	2986.13
41.298	325.1719	213.0	2986.13
41.298	327.125	208.2	2986.13
41.298	329.0312	204.0	2986.13
41.299	330.9688	200.075	2986.05
41.299	340.1406	0.0	2986.05
41.299	334.8281	193.575	2986.05
41.302	355.8125	176.1	2986.1
41.302	357.7188	175.575	2986.1
41.303	359.6094	175.625	2986.03
41.303	1.5312	175.625	2986.03
41.303	3.375	175.875	2986.03
41.303	5.3125	176.275	2986.03
41.303	7.1875	177.05	2986.03
41.304	9.0781	177.875	2985.96
41.304	11.0312	178.95	2985.96
41.304	12.9219	180.2	2985.96
41.304	14.8438	181.75	2985.96
41.305	25.7812	0.0	2986.15
41.305	27.6875	0.0	2986.15
41.306	29.5938	0.0	2986.08
41.306	31.5156	0.0	2986.08
41.306	33.4219	0.0	2986.08
41.306	28.2969	0.0	2986.08
41.306	37.2344	0.0	2986.08
41.307	39.1406	0.0	2986.01
41.307	41.0312	0.0	2986.01
41.307	35.7344	201.3	2986.01
41.308	37.625	193.25	2985.93
41.308	41.4688	189.15	2986.2
41.308	43.375	188.5	2986.2
41.309	45.25	192.7	2986.13
41.309	47.0938	205.325	2986.13
41.309	49.0156	213.125	2986.13
41.309	50.875	221.8	2986.13
41.31	52.7188	232.225	2986.06
41.31	54.625	238.725	2986.06
41.31	56.5	251.2	2986.06
41.31	58.3594	265.175	2986.06
41.311	60.2656	280.0	2985.98
41.311	63.9375	357.5	2986.25
41.311	65.7969	0.0	2986.25
41.312	67.6719	427.575	2986.18
41.312	77.2188	0.0	2986.18
41.312	71.4688	487.025	2986.18
41.312	73.3438	0.0	2986.18
41.313	75.2031	0.0	2986.11
41.313	77.0469	0.0	2986.11
41.313	78.9375	914.4	2986.11
41.313	80.875	0.0	2986.11
41.314	90.7344	0.0	2986.03
41.314	86.7656	845.125	2986.3
41.314	88.6875	833.675	2986.3
41.315	90.5938	833.775	2986.23
41.315	92.5156	829.725	2986.23
41.315	94.4688	0.0	2986.23
41.316	96.375	734.525	2986.16
41.316	98.2969	736.825	2986.16
41.316	100.2344	733.75	2986.16
41.316	102.1406	742.125	2986.16
41.317	104.0781	0.0	2986.08
41.317	106.0	655.075	2986.08
41.317	109.8125	536.65	2986.35
41.317	111.7188	493.25	2986.35
41.318	113.6719	453.65	2986.28
41.318	115.5938	420.825	2986.28
41.318	117.5469	394.125	2986.28
41.319	119.5	369.525	2986.2
41.319	121.4062	349.75	2986.2
41.319	123.3438	331.925	2986.2
41.319	125.2812	316.55	2986.2
41.32	127.2188	302.9	2986.13
41.32	129.1719	289.975	2986.13
41.32	133.0312	269.425	2986.4
41.321	135.0156	260.5	2986.33
41.321	136.9219	252.15	2986.33
41.321	138.8594	244.875	2986.33
41.321	140.75	237.85	2986.33
41.322	142.6875	231.675	2986.25
41.322	144.6406	225.875	2986.25
41.322	146.5469	220.65	2986.25
41.322	148.4688	215.9	2986.25
41.323	150.4062	211.8	2986.18
41.323	152.3281	208.125	2986.18
41.323	156.1094	201.1	2986.45
41.324	158.0781	198.275	2986.38
41.324	159.9688	195.825	2986.38
41.324	161.875	193.75	2986.38
41.324	163.7969	191.65	2986.38
41.325	165.75	189.95	2986.3
41.325	167.6094	188.45	2986.3
41.325	169.5312	187.35	2986.3
41.326	171.4531	186.425	2986.23
41.326	173.3594	185.675	2986.23
41.326	175.2656	184.775	2986.23
41.326	179.1719	184.6	2986.5
41.327	181.0938	184.5	2986.43
41.327	182.9688	184.9	2986.43
41.327	184.8906	185.15	2986.43
41.327	186.8125	186.025	2986.43
41.328	188.7344	186.6	2986.35
41.328	190.6094	187.925	2986.35
41.328	192.5156	189.175	2986.35
41.329	194.4219	190.5	2986.28
41.329	196.375	192.425	2986.28
41.329	198.25	194.325	2986.28
41.33	202.0469	199.1	2986.47
41.33	203.875	201.975	2986.47
41.33	205.75	205.1	2986.47
41.33	207.6562	208.5	2986.47
41.331	209.5469	212.475	2986.4
41.331	211.4062	216.675	2986.4
41.331	213.3125	221.4	2986.4
41.331	215.2188	226.625	2986.4
41.332	217.0938	232.775	2986.33
41.332	218.9844	239.15	2986.33
41.332	220.8438	245.95	2986.33
41.333	224.7344	231.75	2986.52
41.333	226.7031	224.275	2986.52
41.333	228.5469	243.875	2986.52
41.333	230.4219	254.0	2986.52
41.334	232.2969	265.2	2986.45
41.334	234.2969	270.925	2986.45
41.334	236.0938	285.6	2986.45
41.334	237.9688	300.05	2986.45
41.335	239.8281	313.05	2986.38
41.335	241.7188	325.4	2986.38
41.335	243.625	322.175	2986.38
41.336	247.4844	313.125	2986.57
41.336	249.4062	320.175	2986.57
41.336	251.375	306.175	2986.57
41.336	260.7656	0.0	2986.57
41.337	262.6719	0.0	2986.5
41.337	264.5781	0.0	2986.5
41.337	266.5	0.0	2986.5
41.337	260.9688	299.85	2986.5
41.338	262.8594	301.1	2986.43
41.338	272.2188	0.0	2986.43
41.338	274.1562	0.0	2986.43
41.339	270.2188	765.225	2986.62
41.339	272.1094	765.825	2986.62
41.339	274.3438	295.15	2986.62
41.34	275.9688	0.0	2986.55
41.34	277.9062	796.625	2986.55
41.34	279.7812	798.225	2986.55
41.34	281.7344	786.45	2986.55
41.341	283.6406	785.575	2986.48
41.341	285.5625	782.425	2986.48
41.341	287.4531	782.55	2986.48
41.341	289.375	779.625	2986.48
41.342	293.5	303.8	2986.67
41.342	295.4531	294.5	2986.67
41.342	297.3594	286.525	2986.67
41.343	299.3125	279.325	2986.6
41.343	301.25	272.35	2986.6
41.343	303.1562	266.275	2986.6
41.343	305.0938	260.975	2986.6
41.344	306.9375	0.0	2986.53
41.344	308.9062	278.725	2986.53
41.344	310.8125	267.9	2986.53
41.344	312.7656	258.35	2986.53
41.345	316.6094	240.875	2986.72
41.345	318.5469	233.9	2986.72
41.345	320.5312	227.175	2986.72
41.346	322.4219	220.725	2986.65
41.346	324.3125	215.45	2986.65
41.346	326.2344	210.6	2986.65
41.346	328.125	205.775	2986.65
41.347	330.0781	201.675	2986.58
41.347	332.1562	0.0	2986.58
41.347	333.9531	195.05	2986.58
41.347	335.8438	191.975	2986.58
41.35	354.9688	176.025	2986.63
41.35	356.8594	175.9	2986.63
41.351	358.7812	175.625	2986.55
41.351	0.6562	175.625	2986.55
41.351	2.5469	175.8	2986.55
41.351	4.4844	175.975	2986.55
41.352	6.3594	176.5	2986.48
41.352	8.3125	177.475	2986.48
41.352	10.2031	178.5	2986.48
41.352	12.0781	179.6	2986.48
41.353	14.0312	181.075	2986.41
41.353	24.9375	0.0	2986.68
41.353	26.8594	0.0	2986.68
41.354	28.7812	0.0	2986.6
41.354	30.6562	0.0	2986.6
41.354	32.5625	0.0	2986.6
41.354	34.6094	0.0	2986.6
41.355	36.3906	0.0	2986.53
41.355	38.2969	0.0	2986.53
41.355	33.1719	162.55	2986.53
41.355	42.0938	0.0	2986.53
41.356	36.7812	197.275	2986.46
41.356	40.6406	187.1	2986.73
41.356	49.7031	0.0	2986.73
41.357	44.4531	190.55	2986.65
41.357	46.3125	202.175	2986.65
41.357	48.1719	209.525	2986.65
41.357	50.0625	218.05	2986.65
41.358	51.9375	227.45	2986.58
41.358	53.8438	236.875	2986.58
41.358	55.6875	245.025	2986.58
41.359	57.5781	258.625	2986.51
41.359	59.4375	273.225	2986.51
41.359	63.1094	0.0	2986.77
41.359	65.0	368.125	2986.77
41.36	66.875	426.95	2986.7
41.36	68.7812	426.55	2986.7
41.36	70.6406	0.0	2986.7
41.36	72.5469	495.125	2986.7
41.361	74.4062	588.925	2986.63
41.361	76.2344	0.0	2986.63
41.361	85.9219	0.0	2986.63
41.362	80.0469	903.375	2986.56
41.362	81.9531	837.25	2986.56
41.362	85.9375	844.725	2986.82
41.363	87.8438	837.1	2986.75
41.363	89.7656	834.025	2986.75
41.363	91.6875	835.025	2986.75
41.363	93.625	833.125	2986.75
41.364	95.5469	726.825	2986.68
41.364	97.4531	738.7	2986.68
41.364	99.375	737.825	2986.68
41.364	101.2969	738.175	2986.68
41.365	103.2188	729.9	2986.61
41.365	105.1875	655.975	2986.61
41.365	108.9844	559.8	2986.87
41.366	110.8906	511.7	2986.8
41.366	112.8438	470.55	2986.8
41.366	114.7812	433.7	2986.8
41.366	116.7188	404.675	2986.8
41.367	118.6562	379.825	2986.73
41.367	120.6094	357.325	2986.73
41.367	122.5469	339.425	2986.73
41.367	124.4531	322.9	2986.73
41.368	126.375	307.925	2986.66
41.368	128.3281	295.225	2986.66
41.369	132.2031	273.125	2986.85
41.369	134.1562	264.0	2986.85
41.369	136.0938	255.925	2986.85
41.369	138.0156	247.625	2986.85
41.369	139.9531	240.675	2986.85
41.37	141.9062	234.225	2986.78
41.37	143.7969	228.2	2986.78
41.37	145.7188	222.925	2986.78
41.37	147.625	217.8	2986.78
41.371	149.5938	213.425	2986.71
41.371	151.5	209.55	2986.71
41.372	155.2969	202.65	2986.9
41.372	157.2188	199.7	2986.9
41.372	159.1094	196.975	2986.9
41.372	161.0781	194.475	2986.9
41.373	162.9844	192.45	2986.83
41.373	164.9375	190.75	2986.83
41.373	166.7969	189.35	2986.83
41.373	168.75	187.75	2986.83
41.374	170.6406	186.75	2986.75
41.374	172.5469	185.9	2986.75
41.374	174.4688	185.3	2986.75
41.375	178.25	184.475	2986.95
41.375	180.2656	184.475	2986.95
41.375	182.1719	184.75	2986.95
41.375	184.0781	185.05	2986.95
41.376	185.9531	185.525	2986.88
41.376	187.8906	186.475	2986.88
41.376	189.8281	187.35	2986.88
41.376	191.7031	188.4	2986.88
41.377	193.6094	189.85	2986.8
41.377	195.5469	191.4	2986.8
41.377	197.4219	193.5	2986.8
41.378	201.25	197.85	2987.0
41.378	203.0469	200.6	2987.0
41.378	204.9219	203.8	2987.0
41.378	206.8281	207.05	2987.0
41.379	208.75	210.95	2986.93
41.379	210.6094	214.9	2986.93
41.379	212.4844	219.2	2986.93
41.379	214.4062	224.625	2986.93
41.38	216.3281	230.1	2986.85
41.38	218.1875	236.4	2986.85
41.38	220.0625	242.9	2986.85
41.381	223.9062	235.4	2987.05
41.381	225.8125	227.4	2987.05
41.381	227.7344	241.325	2987.05
41.382	229.5938	250.025	2986.98
41.382	231.5	261.1	2986.98
41.382	233.3594	276.1	2986.98
41.382	235.2812	278.1	2986.98
41.382	237.1562	289.3	2986.98
41.383	239.0469	307.575	2986.9
41.383	240.9375	0.0	2986.9
41.383	242.8281	323.95	2986.9
41.384	246.6562	314.6	2987.1
41.384	248.5938	316.8	2987.1
41.384	250.5312	313.5	2987.1
41.385	252.4688	0.0	2987.02
41.385	261.8438	0.0	2987.02
41.385	263.7656	0.0	2987.02
41.385	265.6875	0.0	2987.02
41.386	260.1094	300.25	2986.95
41.386	262.0312	301.15	2986.95
41.386	263.9844	294.75	2986.95
41.386	265.5469	789.125	2986.95
41.387	269.3594	769.05	2987.15
41.387	271.3125	759.65	2987.15
41.387	273.5469	0.0	2987.15
41.388	282.9375	0.0	2987.07
41.388	277.0625	801.5	2987.07
41.388	279.0	788.4	2987.07
41.388	280.9062	812.4	2987.07
41.389	282.8438	785.5	2987.0
