277.023	96.0156	0.0	3258.71
277.023	98.0312	0.0	3258.71
277.024	97.8438	0.0	3258.7
277.024	101.9219	24.5	3258.7
277.024	104.3906	24.925	3258.74
277.025	106.3125	25.375	3258.72
277.025	108.9062	26.2	3258.72
277.025	112.1562	0.0	3258.72
277.025	114.1406	0.0	3258.72
277.026	116.125	0.0	3258.71
277.026	118.1562	0.0	3258.71
277.026	113.1562	153.125	3258.71
277.026	115.25	141.95	3258.71
277.027	117.375	131.9	3258.7
277.027	119.4844	123.925	3258.7
277.028	123.5625	109.975	3258.73
277.028	125.6875	104.225	3258.73
277.028	127.8281	99.35	3258.73
277.028	129.7969	94.975	3258.73
277.029	131.9688	91.0	3258.72
277.029	134.0938	87.525	3258.72
277.029	135.9844	84.525	3258.72
277.029	138.1562	82.15	3258.72
277.029	140.2344	79.625	3258.72
277.03	142.2188	77.3	3258.7
277.03	144.3125	75.35	3258.7
277.031	148.6562	67.675	3258.73
277.031	150.4844	0.0	3258.73
277.031	152.5469	68.35	3258.73
277.031	154.5938	67.275	3258.73
277.032	156.5469	66.275	3258.72
277.032	158.6094	65.3	3258.72
277.032	160.7969	64.625	3258.72
277.032	162.6719	63.85	3258.72
277.033	164.6719	63.25	3258.71
277.033	166.8906	62.7	3258.71
277.033	168.7188	62.275	3258.71
277.034	172.7812	62.325	3258.74
277.034	174.9531	62.125	3258.74
277.034	176.7344	61.975	3258.74
277.034	178.7656	61.9	3258.74
277.035	180.9375	61.825	3258.73
277.035	182.8438	61.875	3258.73
277.035	184.8438	62.075	3258.73
277.035	186.9531	62.175	3258.73
277.036	188.8906	62.55	3258.71
277.036	191.0156	62.9	3258.71
277.036	192.9062	63.4	3258.71
277.037	196.9844	64.525	3258.74
277.037	198.8281	65.325	3258.74
277.037	200.7969	66.075	3258.74
277.037	202.9688	66.875	3258.74
277.038	204.7812	68.0	3258.73
277.038	206.7031	69.025	3258.73
277.038	208.75	0.0	3258.73
277.038	211.0469	62.225	3258.73
277.039	213.1875	58.675	3258.72
277.039	215.3125	55.775	3258.72
277.039	217.5	53.05	3258.72
277.04	221.75	48.775	3258.75
277.04	223.9219	47.05	3258.75
277.04	225.9375	45.4	3258.75
277.041	228.1719	43.875	3258.73
277.041	230.1094	42.575	3258.73
277.041	232.2812	41.4	3258.73
277.041	234.4531	40.425	3258.73
277.042	236.5781	39.45	3258.72
277.042	238.5156	38.625	3258.72
277.042	240.7188	37.85	3258.72
277.042	242.9219	37.175	3258.72
277.043	246.9844	36.0	3258.75
277.043	249.2656	35.525	3258.75
277.043	251.2188	35.075	3258.75
277.044	252.8906	34.7	3258.74
277.044	255.2031	34.35	3258.74
277.044	257.5312	34.075	3258.74
277.044	259.0469	33.85	3258.74
277.045	261.0625	33.625	3258.73
277.045	263.1562	33.475	3258.73
277.045	265.2031	33.375	3258.73
277.045	267.6094	33.3	3258.73
277.046	271.4062	33.35	3258.75
277.046	273.8281	33.4	3258.75
277.046	275.5312	33.475	3258.75
277.047	277.3438	33.625	3258.74
277.047	279.25	33.8	3258.74
277.047	281.7031	34.025	3258.74
277.047	283.4062	34.3	3258.74
277.048	285.1094	34.6	3258.73
277.048	287.25	34.925	3258.73
277.048	289.5312	35.35	3258.73
277.049	291.2812	35.775	3258.72
277.049	295.0625	36.85	3258.76
277.049	297.4062	37.475	3258.76
277.049	299.2188	38.15	3258.76
277.05	300.9688	38.925	3258.75
277.05	302.7188	39.75	3258.75
277.05	304.9688	40.625	3258.75
277.051	306.9219	41.6	3258.74
277.051	308.6562	42.6	3258.74
277.051	315.2344	0.0	3258.74
277.051	312.5156	45.4	3258.74
277.052	314.2812	46.525	3258.72
277.052	318.125	49.9	3258.76
277.052	320.0781	51.875	3258.76
277.053	321.9219	54.125	3258.75
277.053	323.8594	56.625	3258.75
277.053	325.8281	59.45	3258.75
277.053	327.5938	62.475	3258.75
277.054	329.6562	66.325	3258.74
277.054	331.5156	70.225	3258.74
277.054	333.3281	74.75	3258.74
277.054	341.3594	0.0	3258.74
277.055	343.3906	0.0	3258.73
277.057	356.7031	116.475	3258.74
277.057	358.7188	118.375	3258.74
277.058	0.6562	118.575	3258.73
277.058	2.7188	118.725	3258.73
277.058	4.7344	118.725	3258.73
277.058	6.6719	119.375	3258.73
277.059	8.75	118.975	3258.72
277.059	10.6875	119.825	3258.72
277.059	12.7344	121.075	3258.72
277.059	14.75	122.3	3258.72
277.06	23.4688	0.0	3258.71
277.06	20.0625	289.05	3258.75
277.061	22.0469	281.0	3258.74
277.061	24.0625	290.25	3258.74
277.061	26.0469	298.825	3258.74
277.061	28.0469	306.05	3258.74
277.061	30.0469	311.325	3258.74
277.062	32.0156	310.725	3258.73
277.062	34.0156	343.05	3258.73
277.062	35.9844	338.0	3258.73
277.063	38.0	346.225	3258.71
277.063	39.9688	356.975	3258.71
277.063	45.1719	0.0	3258.75
277.064	47.2656	85.925	3258.74
277.064	49.4375	0.0	3258.74
277.064	51.6406	73.45	3258.74
277.064	53.7812	0.0	3258.74
277.065	55.9062	0.0	3258.73
277.065	58.125	58.975	3258.73
277.065	60.1875	57.025	3258.73
277.065	62.1562	57.0	3258.73
277.066	64.0781	58.075	3258.72
277.066	66.0312	58.75	3258.72
277.066	75.7031	0.0	3258.76
277.067	71.2344	92.8	3258.75
277.067	73.375	85.0	3258.75
277.067	75.6094	0.0	3258.75
277.067	77.6562	75.575	3258.75
277.068	79.5781	77.7	3258.73
277.068	81.6094	78.725	3258.73
277.068	83.5781	81.125	3258.73
277.068	91.8594	0.0	3258.73
277.069	92.0156	0.0	3258.72
277.069	95.8594	0.0	3258.72
277.07	99.9062	0.0	3258.75
277.07	101.7656	24.5	3258.75
277.07	102.9219	24.625	3258.75
277.07	103.8438	24.9	3258.75
277.07	105.6094	25.325	3258.75
277.071	108.0938	26.1	3258.74
277.071	112.0156	0.0	3258.74
277.071	114.0312	0.0	3258.74
277.072	116.0	0.0	3258.73
277.072	118.0	0.0	3258.73
277.072	113.0156	152.525	3258.73
277.073	117.1562	132.85	3258.75
277.073	119.25	124.45	3258.75
277.073	121.3281	117.15	3258.75
277.073	123.5	110.0	3258.75
277.073	125.5938	104.7	3258.75
277.074	127.5938	99.6	3258.74
277.074	129.6562	95.65	3258.74
277.074	131.8125	91.2	3258.74
277.075	133.9062	87.775	3258.73
277.075	135.9219	85.075	3258.73
277.075	137.9688	82.3	3258.73
277.076	142.1562	77.475	3258.76
277.076	144.1875	75.425	3258.76
277.076	146.2031	73.7	3258.76
277.076	148.3438	67.6	3258.76
277.077	150.3438	0.0	3258.75
277.077	152.5	68.55	3258.75
277.077	154.4375	67.35	3258.75
277.077	156.3906	66.325	3258.75
277.078	158.5156	65.375	3258.74
277.078	160.5156	64.625	3258.74
277.078	162.6406	63.875	3258.74
277.079	166.7031	62.725	3258.76
277.079	168.6562	62.325	3258.76
277.079	176.3594	0.0	3258.76
277.079	172.6406	62.35	3258.76
277.08	174.625	62.15	3258.75
277.08	176.8125	61.975	3258.75
277.08	178.7656	61.85	3258.75
277.08	180.8125	61.8	3258.75
277.081	182.7812	61.875	3258.74
277.081	184.9219	62.05	3258.74
277.081	186.8438	62.175	3258.74
277.082	190.9219	62.85	3258.77
277.082	192.8125	63.4	3258.77
277.082	194.8281	63.825	3258.77
277.082	196.8281	64.4	3258.77
277.083	198.7188	65.25	3258.76
277.083	200.7344	66.025	3258.76
277.083	202.8125	66.875	3258.76
277.084	204.6406	67.9	3258.74
277.084	206.5469	68.95	3258.74
277.084	208.6875	0.0	3258.74
277.084	210.875	62.25	3258.74
277.085	215.1094	55.875	3258.77
277.085	217.2969	53.25	3258.77
277.085	219.4531	50.95	3258.77
277.086	221.6875	48.85	3258.76
277.086	223.5938	47.075	3258.76
277.086	225.6719	45.4	3258.76
277.086	228.0156	43.95	3258.76
277.087	230.1875	42.675	3258.75
277.087	232.2188	41.5	3258.75
277.087	234.2969	40.4	3258.75
277.087	236.6094	39.45	3258.75
277.088	240.4375	37.85	3258.78
277.088	242.6406	37.2	3258.78
277.088	244.9062	36.6	3258.78
277.089	246.7969	36.05	3258.77
277.089	248.6875	35.525	3258.77
277.089	251.0938	35.075	3258.77
277.089	252.7969	34.7	3258.77
277.09	255.2344	34.35	3258.75
277.09	257.0469	34.075	3258.75
277.09	259.0469	33.85	3258.75
277.09	261.2812	33.65	3258.75
277.091	265.3281	33.375	3258.78
277.091	267.4531	33.3	3258.78
277.091	269.4531	33.3	3258.78
277.092	271.625	33.325	3258.77
277.092	273.4062	33.4	3258.77
277.092	275.5156	33.475	3258.77
277.093	277.3906	33.625	3258.76
277.093	279.5312	33.8	3258.76
277.093	281.4375	34.025	3258.76
277.093	283.1406	34.3	3258.76
277.094	285.2812	34.6	3258.75
277.094	289.2344	35.35	3258.79
277.094	291.0469	35.75	3258.79
277.095	293.1875	36.275	3258.77
277.095	295.4531	36.85	3258.77
277.095	297.0312	37.475	3258.77
277.095	298.8125	38.15	3258.77
277.096	301.0156	38.9	3258.76
277.096	302.8438	39.75	3258.76
277.096	304.7969	40.575	3258.76
277.096	306.5938	41.6	3258.76
277.097	308.6719	42.575	3258.75
277.097	312.5312	45.425	3258.79
277.097	314.5781	46.35	3258.79
277.098	316.3281	48.075	3258.78
277.098	318.3906	49.9	3258.78
277.098	320.1406	51.875	3258.78
277.098	321.8906	54.05	3258.78
277.099	323.9219	56.6	3258.77
277.099	325.7656	59.275	3258.77
277.099	327.7344	62.375	3258.77
277.099	329.4219	66.075	3258.77
277.1	331.3906	70.45	3258.75
277.105	12.7344	121.1	3258.74
277.105	14.6875	122.3	3258.74
277.106	23.4375	0.0	3258.72
277.106	18.0	277.85	3258.72
277.106	20.0156	290.075	3258.72
277.106	22.0469	281.125	3258.72
277.107	24.0469	290.25	3258.71
277.107	26.0	298.8	3258.71
277.107	28.0156	306.075	3258.71
277.107	30.0156	311.3	3258.71
277.108	32.0156	310.65	3258.7
277.108	35.9688	337.9	3258.74
277.108	38.0	346.25	3258.74
277.109	39.9531	356.85	3258.73
277.109	41.9688	373.325	3258.73
277.109	45.0625	0.0	3258.73
277.109	47.3438	85.725	3258.73
277.11	49.4688	0.0	3258.72
277.11	51.6094	73.325	3258.72
277.11	53.6562	0.0	3258.72
277.11	55.8906	0.0	3258.72
277.111	58.0625	58.975	3258.71
277.111	62.0469	56.975	3258.74
277.111	64.2656	57.9	3258.74
277.112	66.0625	58.75	3258.73
277.112	68.1719	59.425	3258.73
277.112	75.6562	0.0	3258.73
277.112	71.2656	92.8	3258.73
277.113	73.3438	85.0	3258.72
277.113	75.625	0.0	3258.72
277.113	77.6562	75.475	3258.72
277.113	79.4688	77.65	3258.72
277.114	81.5781	78.725	3258.71
277.114	91.8438	0.0	3258.75
277.115	92.2188	0.0	3258.74
277.115	95.8594	0.0	3258.74
277.115	97.875	0.0	3258.74
277.115	99.875	0.0	3258.74
277.115	100.2969	24.5	3258.74
277.116	102.3906	24.625	3258.73
277.116	103.9688	24.9	3258.73
277.116	106.0938	25.325	3258.73
277.117	108.8594	26.1	3258.71
277.117	111.9844	0.0	3258.71
277.117	115.9375	0.0	3258.75
277.118	117.9531	0.0	3258.74
277.118	112.9844	153.0	3258.74
277.118	115.0781	142.925	3258.74
277.118	117.1406	132.825	3258.74
277.119	119.2344	124.7	3258.73
277.119	121.3906	117.175	3258.73
277.119	123.4219	110.3	3258.73
277.119	125.5781	104.925	3258.73
277.12	127.5469	99.6	3258.72
277.12	129.625	95.65	3258.72
277.12	133.8125	87.775	3258.76
277.121	135.9375	85.05	3258.75
277.121	138.0469	82.3	3258.75
277.121	140.1094	79.675	3258.75
277.121	142.0781	77.45	3258.75
277.122	144.1562	75.425	3258.73
277.122	146.25	73.725	3258.73
277.122	148.5156	67.625	3258.73
277.122	150.3594	0.0	3258.73
277.123	152.4531	68.575	3258.72
277.123	154.5781	67.35	3258.72
277.124	158.4219	65.4	3258.75
277.124	160.4844	64.65	3258.75
277.124	162.5	63.875	3258.75
277.124	164.6406	63.3	3258.75
277.124	166.7344	62.725	3258.75
277.125	168.5781	62.35	3258.74
277.125	176.3281	0.0	3258.74
277.125	172.6562	62.35	3258.74
277.126	174.6406	62.15	3258.73
277.126	176.5938	61.975	3258.73
277.126	178.7969	61.85	3258.73
277.127	182.6875	61.85	3258.76
277.127	184.8594	62.05	3258.76
277.127	186.7969	62.175	3258.76
277.127	188.7969	62.525	3258.76
277.127	190.875	62.85	3258.76
277.128	192.8906	63.325	3258.74
277.128	194.7188	63.825	3258.74
277.128	196.75	64.4	3258.74
277.129	198.7188	65.25	3258.73
277.129	200.7656	66.025	3258.73
277.129	202.8281	66.825	3258.73
277.13	206.6406	68.95	3258.76
277.13	208.7031	0.0	3258.76
277.13	210.8594	62.225	3258.76
277.13	212.8906	58.975	3258.76
277.131	215.0781	55.9	3258.75
277.131	217.25	53.25	3258.75
277.131	219.4375	50.975	3258.75
277.131	221.7031	48.925	3258.75
277.132	223.5312	47.15	3258.74
277.132	225.7188	45.425	3258.74
277.132	227.9219	43.95	3258.74
277.133	232.3125	41.5	3258.76
277.133	234.3125	40.475	3258.76
277.133	236.2969	39.5	3258.76
277.133	238.6562	38.625	3258.76
277.134	240.7969	37.85	3258.75
277.134	242.75	37.2	3258.75
277.134	244.5469	36.6	3258.75
277.134	246.8906	36.075	3258.75
277.135	248.8281	35.55	3258.74
277.135	251.2344	35.1	3258.74
277.135	253.2656	34.7	3258.74
277.136	256.9375	34.075	3258.77
277.136	259.375	33.85	3258.77
277.136	261.125	33.65	3258.77
277.136	263.3281	33.475	3258.77
277.137	265.3594	33.4	3258.76
277.137	267.1406	33.3	3258.76
277.137	269.5	33.3	3258.76
277.138	271.5625	33.325	3258.74
277.138	273.1875	33.4	3258.74
277.138	275.3281	33.475	3258.74
277.138	277.125	33.625	3258.74
277.139	281.625	34.025	3258.77
277.139	283.6719	34.3	3258.77
277.139	285.2031	34.575	3258.77
277.14	287.1562	34.925	3258.76
277.14	289.3906	35.35	3258.76
277.14	291.0625	35.75	3258.76
277.14	293.2031	36.25	3258.76
277.141	295.25	36.825	3258.75
277.141	297.1094	37.475	3258.75
277.141	299.25	38.15	3258.75
277.141	300.9844	38.9	3258.75
277.142	304.75	40.55	3258.78
277.142	306.6094	41.55	3258.78
277.142	308.7969	42.675	3258.78
277.143	315.1562	0.0	3258.77
277.143	312.5156	45.45	3258.77
277.143	319.1875	0.0	3258.77
277.143	316.2656	47.95	3258.77
277.144	318.3125	49.875	3258.75
277.144	320.1094	51.85	3258.75
277.144	322.0781	54.05	3258.75
277.145	323.8438	56.525	3258.74
277.145	327.6875	62.25	3258.78
277.145	329.4531	65.625	3258.78
277.145	331.3125	70.3	3258.78
277.146	333.2656	74.875	3258.77
277.146	341.2812	0.0	3258.77
277.146	343.2969	0.0	3258.77
277.146	345.3125	0.0	3258.77
277.147	347.3281	0.0	3258.76
277.147	349.3438	0.0	3258.76
277.147	351.3438	0.0	3258.76
277.148	346.5625	121.55	3258.75
277.15	2.625	118.725	3258.76
277.15	4.6094	118.875	3258.76
277.15	6.6875	119.425	3258.76
277.15	8.6094	118.875	3258.76
277.151	10.6875	119.8	3258.75
277.151	12.6094	121.1	3258.75
277.151	14.6094	122.275	3258.75
277.151	23.3906	0.0	3258.75
277.152	17.9688	277.825	3258.74
277.152	19.9688	290.95	3258.74
277.152	21.9688	281.35	3258.74
277.153	25.9844	298.775	3258.77
277.153	27.9688	306.075	3258.77
277.153	29.9531	311.3	3258.77
277.153	31.9688	310.125	3258.77
277.154	33.9375	343.9	3258.76
277.154	35.9375	337.175	3258.76
277.154	37.9375	346.1	3258.76
277.154	39.9375	356.5	3258.76
277.155	41.9062	373.05	3258.74
277.155	45.0156	0.0	3258.74
277.155	47.2812	85.7	3258.74
277.156	51.5938	73.3	3258.77
277.156	53.7656	68.5	3258.77
277.156	55.9375	0.0	3258.77
277.157	58.0938	59.025	3258.76
277.157	60.0781	57.05	3258.76
277.157	62.1406	56.925	3258.76
277.157	64.0938	57.825	3258.76
277.157	66.1562	58.725	3258.76
277.158	67.9844	59.35	3258.75
277.158	75.5625	0.0	3258.75
277.158	71.1719	92.825	3258.75
277.159	75.5	0.0	3258.78
277.159	77.6094	75.15	3258.78
277.159	79.5781	77.525	3258.78
277.16	81.5312	78.675	3258.76
277.16	83.5	81.1	3258.76
277.16	91.7812	0.0	3258.76
277.16	91.2969	0.0	3258.76
277.16	95.7969	0.0	3258.76
277.161	97.8125	0.0	3258.75
277.161	99.8594	0.0	3258.75
277.161	100.3438	24.5	3258.75
277.162	103.5625	24.875	3258.78
277.162	107.1406	25.325	3258.78
277.162	108.4844	26.1	3258.78
277.163	111.9531	0.0	3258.77
277.163	113.9688	0.0	3258.77
277.163	115.9062	0.0	3258.77
277.163	117.9375	0.0	3258.77
277.164	112.9062	153.075	3258.76
277.164	115.0469	143.075	3258.76
277.164	117.125	132.875	3258.76
277.164	119.2344	124.725	3258.76
277.165	123.4062	110.425	3258.78
277.165	125.5156	104.975	3258.78
277.165	127.5781	99.65	3258.78
277.166	129.6094	95.625	3258.77
277.166	131.7031	91.6	3258.77
277.166	133.8281	87.75	3258.77
277.166	135.8594	85.125	3258.77
277.167	137.8594	82.475	3258.76
277.167	139.9531	79.675	3258.76
277.167	142.0938	77.475	3258.76
277.167	144.125	75.575	3258.76
277.168	148.3281	67.875	3258.79
277.168	156.2656	0.0	3258.79
277.169	152.4219	68.575	3258.78
277.169	154.375	67.4	3258.78
277.169	156.3438	66.375	3258.78
277.169	158.3906	65.4	3258.78
277.169	160.4844	64.7	3258.78
277.17	162.4844	63.875	3258.77
277.17	164.5312	63.375	3258.77
277.17	166.5781	62.725	3258.77
277.171	168.5	62.35	3258.75
277.171	172.6719	62.35	3258.79
277.171	174.7031	62.125	3258.79
277.172	176.6406	61.95	3258.78
277.172	178.5312	61.85	3258.78
277.172	180.8125	61.8	3258.78
277.172	182.6875	61.825	3258.78
277.173	184.8594	62.025	3258.77
277.173	186.7812	62.175	3258.77
277.173	188.7188	62.525	3258.77
277.173	190.7969	62.85	3258.77
277.174	192.8438	63.3	3258.76
277.174	196.6719	64.4	3258.8
277.174	198.7812	65.25	3258.8
277.175	200.625	66.025	3258.79
277.175	202.6562	66.825	3258.79
277.175	204.4844	67.9	3258.79
277.175	206.5469	68.95	3258.79
277.176	208.6875	0.0	3258.77
277.176	210.6875	62.6	3258.77
277.176	212.9375	59.175	3258.77
277.176	215.0625	55.975	3258.77
277.177	217.2031	53.4	3258.76
277.177	221.4688	49.025	3258.8
277.177	223.5938	47.175	3258.8
277.178	225.5781	45.525	3258.79
277.178	227.9219	44.0	3258.79
277.178	230.0781	42.7	3258.79
277.178	231.9688	41.5	3258.79
277.179	234.2031	40.475	3258.78
277.179	236.5312	39.55	3258.78
277.179	238.25	38.7	3258.78
277.18	240.3594	37.875	3258.77
277.18	242.5312	37.225	3258.77
277.18	246.875	36.075	3258.81
277.181	249.0	35.575	3258.79
277.181	251.0625	35.1	3258.79
277.181	253.1406	34.725	3258.79
277.181	255.0938	34.375	3258.79
277.181	257.0781	34.1	3258.79
277.182	259.0	33.85	3258.78
277.182	260.9531	33.65	3258.78
277.182	263.4062	33.475	3258.78
277.183	265.375	33.4	3258.77
277.183	267.25	33.3	3258.77
277.183	271.4219	33.325	3258.81
277.184	273.5469	33.4	3258.8
277.184	275.1562	33.475	3258.8
277.184	277.5156	33.625	3258.8
277.184	279.5938	33.8	3258.8
277.185	281.5312	34.025	3258.79
277.185	283.5156	34.3	3258.79
277.185	285.625	34.575	3258.79
277.185	287.125	34.9	3258.79
277.186	289.25	35.325	3258.78
277.186	291.1562	35.75	3258.78
277.186	295.375	36.8	3258.82
277.187	296.9375	37.4	3258.8
277.187	299.1094	38.125	3258.8
277.187	301.1094	38.9	3258.8
277.187	302.6094	39.7	3258.8
277.188	304.8594	40.55	3258.79
277.188	306.7656	41.5	3258.79
277.188	313.0781	0.0	3258.79
277.188	315.1094	0.0	3258.79
277.189	312.4531	45.425	3258.78
277.189	319.1406	0.0	3258.78
277.189	318.0781	49.675	3258.82
277.19	320.0625	51.725	3258.81
277.19	321.8438	54.025	3258.81
277.19	323.7656	56.5	3258.81
277.19	325.6875	59.225	3258.81
277.191	327.4688	62.225	3258.8
277.191	329.4688	65.625	3258.8
277.191	331.25	70.0	3258.8
277.192	333.1562	74.875	3258.78
277.192	341.2031	0.0	3258.78
277.192	343.2188	0.0	3258.78
277.195	2.5469	118.725	3258.79
277.196	4.5781	118.525	3258.78
277.196	6.4844	119.425	3258.78
277.196	8.5625	118.875	3258.78
277.196	10.5156	119.75	3258.78
277.197	12.5469	120.925	3258.77
277.197	14.6094	122.0	3258.77
277.197	23.3281	0.0	3258.77
277.197	17.8906	277.825	3258.77
277.198	19.8906	291.075	3258.75
277.198	21.9219	282.95	3258.75
277.198	25.8906	298.25	3258.79
277.199	27.8906	305.7	3258.78
277.199	29.8906	311.475	3258.78
277.199	31.9062	308.2	3258.78
277.199	33.8594	344.125	3258.78
277.2	35.8594	336.95	3258.77
277.2	37.8438	345.725	3258.77
277.2	39.8438	355.4	3258.77
277.2	41.8438	368.65	3258.77
277.201	45.0156	0.0	3258.76
277.201	47.1875	85.8	3258.76
277.202	51.5	73.2	3258.79
277.202	53.5625	68.7	3258.79
277.202	55.7344	0.0	3258.79
277.202	57.875	59.275	3258.79
277.202	60.0156	57.075	3258.79
277.203	62.1406	56.9	3258.77
277.203	63.9062	57.775	3258.77
277.203	65.9688	58.65	3258.77
277.204	67.875	59.3	3258.76
277.204	75.4531	0.0	3258.76
277.204	71.0469	93.25	3258.76
277.205	75.4375	78.225	3258.79
277.205	77.4688	75.15	3258.79
277.205	79.375	76.925	3258.79
277.205	81.4375	78.975	3258.79
277.206	83.3906	80.6	3258.78
277.206	91.6719	0.0	3258.78
277.206	91.6406	0.0	3258.78
277.206	93.9062	25.8	3258.78
277.207	97.7344	0.0	3258.77
277.207	99.75	0.0	3258.77
277.207	100.0938	24.5	3258.77
277.208	104.4844	24.875	3258.79
277.208	107.25	25.275	3258.79
277.208	107.2969	26.0	3258.79
277.208	111.875	0.0	3258.79
277.209	113.8906	0.0	3258.78
277.209	115.8125	0.0	3258.78
277.209	117.8438	0.0	3258.78
277.209	112.7969	153.775	3258.78
277.21	114.9219	143.55	3258.77
277.21	117.0625	133.4	3258.77
277.21	119.0781	124.975	3258.77
277.211	123.2344	110.85	3258.8
277.211	125.4062	105.1	3258.8
277.211	127.4844	100.2	3258.8
277.211	129.4375	95.7	3258.8
277.212	131.6719	91.6	3258.79
277.212	133.7031	87.75	3258.79
277.212	135.7656	85.175	3258.79
277.213	137.8906	82.6	3258.78
277.213	139.9375	79.875	3258.78
277.213	142.0156	77.625	3258.78
277.213	144.0469	75.6	3258.78
277.214	148.2812	67.825	3258.8
277.214	156.1719	0.0	3258.8
277.214	152.3125	68.725	3258.8
277.214	154.2656	67.425	3258.8
277.215	156.375	66.425	3258.79
277.215	158.3594	65.475	3258.79
277.215	160.3906	64.7	3258.79
277.216	162.5312	63.9	3258.78
277.216	164.4375	63.375	3258.78
277.216	166.4688	62.75	3258.78
277.216	168.6094	62.35	3258.78
277.217	172.5312	62.35	3258.81
277.217	174.4531	62.125	3258.81
277.217	176.5469	61.975	3258.81
277.218	178.4688	61.85	3258.8
277.218	180.5625	61.8	3258.8
277.218	182.6719	61.825	3258.8
277.218	184.6562	61.975	3258.8
277.219	186.5625	62.15	3258.78
277.219	188.5625	62.525	3258.78
277.219	190.7656	62.825	3258.78
277.219	192.5938	63.3	3258.78
277.22	196.5781	64.325	3258.81
277.22	198.7344	65.175	3258.81
277.22	200.6094	65.95	3258.81
277.221	202.5781	66.8	3258.8
277.221	204.5469	67.85	3258.8
277.221	206.3906	68.85	3258.8
277.221	208.5312	0.0	3258.8
277.222	210.6094	62.6	3258.79
277.222	212.7812	59.15	3258.79
277.222	215.0625	56.225	3258.79
277.223	217.2344	53.575	3258.78
277.223	221.3906	49.075	3258.82
277.223	223.5	47.15	3258.82
277.223	225.625	45.55	3258.82
277.224	227.9062	44.125	3258.81
277.224	229.9219	42.775	3258.81
277.224	232.2344	41.6	3258.81
277.225	234.25	40.5	3258.79
277.225	236.1719	39.55	3258.79
277.225	238.0938	38.725	3258.79
277.225	240.4062	37.95	3258.79
277.226	242.3594	37.275	3258.78
277.226	246.4375	36.1	3258.82
277.226	248.4844	35.575	3258.82
277.227	250.7812	35.125	3258.81
277.227	252.7656	34.75	3258.81
277.227	255.0625	34.4	3258.81
277.227	256.9375	34.1	3258.81
277.228	258.9219	33.85	3258.8
277.228	261.125	33.65	3258.8
277.228	263.25	33.5	3258.8
277.228	265.375	33.4	3258.8
277.229	267.2031	33.3	3258.79
277.229	270.9688	33.325	3258.83
277.229	273.5156	33.375	3258.83
277.23	275.2656	33.475	3258.81
277.23	276.875	33.6	3258.81
277.23	279.2188	33.775	3258.81
277.23	281.1562	34.0	3258.81
277.231	283.0469	34.25	3258.8
277.231	285.2969	34.575	3258.8
277.231	286.875	34.9	3258.8
277.231	289.3281	35.275	3258.8
277.232	291.0469	35.725	3258.79
277.232	294.9375	36.8	3258.83
277.232	297.0781	37.4	3258.83
277.233	298.9844	38.075	3258.82
277.233	300.7344	38.8	3258.82
277.233	302.9062	39.6	3258.82
277.234	304.5312	40.525	3258.81
277.234	306.6719	41.5	3258.81
277.234	313.0	0.0	3258.81
277.234	315.0156	0.0	3258.81
277.235	312.4531	45.55	3258.79
277.235	319.0469	0.0	3258.79
277.235	317.9844	49.675	3258.83
277.235	319.875	51.575	3258.83
277.236	321.9219	53.825	3258.82
277.236	323.8438	56.225	3258.82
277.236	325.6562	58.95	3258.82
277.237	327.5156	62.2	3258.81
277.237	329.3594	65.65	3258.81
277.237	331.1875	69.975	3258.81
277.237	333.1406	74.45	3258.81
277.238	341.125	0.0	3258.8
277.238	343.125	0.0	3258.8
277.241	2.4844	118.725	3258.8
277.241	4.4375	118.75	3258.8
277.242	6.5	119.4	3258.79
277.242	8.4219	118.8	3258.79
277.242	10.5	119.7	3258.79
277.242	12.4688	120.9	3258.79
277.243	14.5469	121.95	3258.78
277.243	23.25	0.0	3258.78
277.243	17.8125	277.55	3258.78
277.244	19.7969	292.7	3258.77
277.244	21.8281	282.95	3258.77
277.244	25.7969	298.175	3258.81
277.244	27.8281	305.525	3258.81
277.245	29.8125	311.3	3258.8
277.245	31.8281	306.95	3258.8
277.245	33.7656	346.05	3258.8
277.246	35.75	336.0	3258.78
277.246	37.75	345.425	3258.78
277.246	39.75	355.325	3258.78
277.246	41.7344	370.725	3258.78
277.247	44.8594	0.0	3258.77
277.247	47.0156	85.8	3258.77
277.247	51.3906	73.3	3258.81
277.247	53.4375	69.025	3258.81
277.248	55.6875	0.0	3258.8
277.248	57.9062	59.275	3258.8
277.248	59.8281	57.2	3258.8
277.249	61.8594	56.975	3258.79
277.249	63.8906	57.7	3258.79
277.249	65.9688	58.625	3258.79
277.249	67.9375	59.225	3258.79
277.25	75.3906	0.0	3258.78
277.25	70.9375	93.25	3258.78
277.25	75.3125	78.6	3258.82
277.251	77.4062	75.275	3258.81
277.251	79.2656	76.775	3258.81
277.251	81.3594	79.0	3258.81
277.251	83.2812	80.55	3258.81
277.252	91.6094	0.0	3258.79
277.252	93.6406	0.0	3258.79
277.252	94.1875	25.8	3258.79
277.252	97.6719	0.0	3258.79
277.253	99.6562	0.0	3258.78
277.253	99.4062	24.5	3258.78
277.253	103.5938	24.85	3258.82
277.254	105.375	25.275	3258.81
277.254	108.4688	26.0	3258.81
277.254	111.7812	0.0	3258.81
277.254	113.8125	0.0	3258.81
277.255	115.7656	0.0	3258.8
277.255	117.7656	0.0	3258.8
277.255	112.7969	154.175	3258.8
277.256	114.8281	144.175	3258.79
277.256	116.9219	133.775	3258.79
277.256	119.0625	125.275	3258.79
277.256	123.1719	111.25	3258.83
277.257	125.3125	105.275	3258.81
277.257	127.3438	100.2	3258.81
277.257	129.3906	95.7	3258.81
277.258	131.5312	91.625	3258.8
277.258	133.6094	88.125	3258.8
277.258	135.7344	85.2	3258.8
277.258	137.7344	82.575	3258.8
277.259	139.7812	79.875	3258.79
277.259	141.8438	77.725	3258.79
277.259	144.0156	75.725	3258.79
277.26	148.2188	67.5	3258.82
277.26	150.1406	0.0	3258.82
277.26	152.1562	68.725	3258.82
277.26	154.3281	67.525	3258.82
277.261	156.1875	66.525	3258.81
277.261	158.2656	65.45	3258.81
277.261	160.4062	64.775	3258.81
277.261	162.4531	63.925	3258.81
277.262	164.4688	63.4	3258.79
277.262	166.2969	62.75	3258.79
277.262	168.4531	62.35	3258.79
277.263	172.5312	62.4	3258.82
277.263	174.375	62.1	3258.82
277.263	176.3594	61.975	3258.82
277.263	178.5312	61.85	3258.82
277.264	180.4688	61.825	3258.81
277.264	182.5312	61.8	3258.81
277.264	184.5312	62.0	3258.81
277.264	186.5	62.15	3258.81
277.265	188.5	62.525	3258.8
277.265	190.6875	62.775	3258.8
277.265	192.5625	63.3	3258.8
277.266	196.6719	64.325	3258.83
277.266	198.5312	65.175	3258.83
277.266	200.6094	65.925	3258.83
277.267	202.5938	66.725	3258.82
277.267	204.4375	67.85	3258.82
277.267	206.4219	68.825	3258.82
277.267	208.4062	0.0	3258.82
277.268	210.5	62.75	3258.8
277.268	212.875	59.325	3258.8
277.268	215.0156	56.325	3258.8
277.268	216.9688	53.6	3258.8
277.269	221.1562	49.125	3258.83
277.269	223.5156	47.25	3258.83
277.269	225.5625	45.65	3258.83
277.27	227.7031	44.15	3258.82
277.27	229.9688	42.8	3258.82
277.27	231.9531	41.6	3258.82
277.27	234.0312	40.6	3258.82
277.271	236.0469	39.625	3258.81
277.271	238.0312	38.775	3258.81
277.271	240.125	37.975	3258.81
277.271	242.3906	37.275	3258.81
277.272	246.3906	36.1	3258.84
277.272	248.375	35.6	3258.84
277.272	250.6406	35.15	3258.84
277.273	252.7188	34.75	3258.82
277.273	255.1875	34.4	3258.82
277.273	256.7656	34.125	3258.82
277.273	259.0	33.875	3258.82
277.274	260.9688	33.65	3258.81
277.274	263.2188	33.5	3258.81
277.274	264.8125	33.4	3258.81
277.274	267.2656	33.3	3258.81
277.275	270.9062	33.35	3258.84
277.275	273.4375	33.375	3258.84
277.276	274.9062	33.475	3258.83
277.276	277.4062	33.6	3258.83
277.276	279.5156	33.8	3258.83
277.276	281.0312	34.0	3258.83
277.276	283.0	34.25	3258.83
277.277	284.9844	34.55	3258.82
277.277	287.2188	34.875	3258.82
277.277	288.75	35.275	3258.82
277.277	290.7344	35.725	3258.82
277.278	294.7188	36.75	3258.84
277.278	297.0938	37.325	3258.84
277.279	298.5938	38.05	3258.83
277.279	300.5469	38.8	3258.83
277.279	302.7188	39.6	3258.83
277.279	304.3438	40.5	3258.83
277.279	306.2969	41.425	3258.83
277.28	308.5	42.4	3258.82
277.28	314.9375	0.0	3258.82
277.28	312.0469	45.55	3258.82
277.281	314.1719	46.325	3258.81
277.281	318.0	49.525	3258.85
277.281	319.9531	51.475	3258.85
277.282	321.8594	53.8	3258.84
277.282	323.75	56.2	3258.84
277.282	325.5156	58.95	3258.84
277.282	327.3125	62.15	3258.84
277.283	329.1875	65.4	3258.83
277.283	331.0312	69.75	3258.83
277.283	333.0938	74.1	3258.83
277.283	341.0312	0.0	3258.83
277.284	343.0469	0.0	3258.81
277.289	19.6875	293.0	3258.79
277.289	21.7188	283.1	3258.79
277.29	23.7344	289.45	3258.78
277.29	25.7344	297.925	3258.78
277.29	27.7031	305.4	3258.78
277.291	29.7188	311.15	3258.77
277.291	31.7031	308.3	3258.77
277.291	33.6562	346.05	3258.77
277.291	35.6562	335.9	3258.77
277.292	37.6562	345.175	3258.76
277.292	39.6406	354.4	3258.76
277.292	44.7656	0.0	3258.8
277.293	46.9375	85.925	3258.79
277.293	48.9844	80.8	3258.79
277.293	51.3281	73.375	3258.79
277.293	53.2969	69.025	3258.79
277.294	55.4688	0.0	3258.78
277.294	57.6719	59.3	3258.78
277.294	59.75	57.325	3258.78
277.294	61.9688	56.95	3258.78
277.295	63.9062	57.675	3258.76
277.295	65.8594	58.675	3258.76
277.295	75.2969	0.0	3258.8
277.296	70.8594	93.6	3258.79
277.296	73.0469	86.45	3258.79
277.296	75.1406	78.625	3258.79
277.296	77.2344	75.475	3258.79
277.297	79.2344	76.45	3258.78
277.297	81.2812	79.0	3258.78
277.297	83.2344	80.35	3258.78
277.297	91.4844	0.0	3258.78
277.298	93.5312	0.0	3258.77
277.298	93.9688	25.85	3258.77
277.298	99.5625	0.0	3258.81
277.299	99.8906	24.5	3258.8
277.299	101.4531	24.55	3258.8
277.299	104.6562	24.825	3258.8
277.3	107.2344	25.225	3258.78
277.3	107.7969	25.925	3258.78
277.3	111.6875	0.0	3258.78
277.3	113.6875	0.0	3258.78
277.3	115.6562	0.0	3258.78
277.301	117.6719	0.0	3258.77
277.301	112.6562	154.95	3258.77
277.302	116.8438	134.525	3258.8
277.302	118.9219	125.775	3258.8
277.302	121.0469	117.975	3258.8
277.302	123.1094	111.5	3258.8
277.303	125.1719	105.5	3258.79
277.303	127.2969	100.525	3258.79
277.303	129.3594	96.025	3258.79
277.303	131.3906	91.775	3258.79
277.304	133.4844	88.375	3258.78
277.304	135.5	85.225	3258.78
277.304	137.6875	82.675	3258.78
277.305	141.7344	77.925	3258.81
277.305	143.7656	75.8	3258.81
277.305	145.8281	73.95	3258.81
277.305	148.1562	67.525	3258.81
277.306	150.1406	0.0	3258.79
277.306	152.125	68.775	3258.79
277.306	154.0781	67.575	3258.79
277.306	156.2344	66.575	3258.79
277.307	158.1719	65.475	3258.78
277.307	160.25	64.825	3258.78
277.307	162.2031	63.925	3258.78
277.308	166.3281	62.85	3258.81
277.308	168.3281	62.375	3258.81
277.308	170.25	62.275	3258.81
277.309	172.2656	62.4	3258.8
277.309	174.3438	62.1	3258.8
277.309	176.2812	61.975	3258.8
277.309	178.4375	61.925	3258.8
277.309	180.4531	61.825	3258.8
277.31	182.5312	61.8	3258.79
277.31	184.4531	61.95	3258.79
277.31	186.4531	62.2	3258.79
277.311	190.4062	62.8	3258.81
277.311	192.4375	63.3	3258.81
277.311	194.5312	63.775	3258.81
277.312	196.375	64.3	3258.8
277.312	198.3438	65.15	3258.8
277.312	200.3906	65.8	3258.8
277.312	202.3438	66.65	3258.8
277.313	204.3594	67.75	3258.79
277.313	206.1719	68.7	3258.79
277.313	214.1094	0.0	3258.79
277.313	210.3906	63.075	3258.79
277.314	214.6875	56.425	3258.82
277.314	216.8125	53.775	3258.82
277.314	218.9688	51.425	3258.82
277.315	221.2969	49.35	3258.81
277.315	223.4531	47.325	3258.81
277.315	225.4375	45.675	3258.81
277.315	227.3594	44.2	3258.81
277.316	229.7188	42.95	3258.79
277.316	231.6406	41.725	3258.79
277.316	233.6875	40.65	3258.79
277.316	235.9062	39.65	3258.79
277.317	239.9688	38.0	3258.82
277.317	242.3281	37.325	3258.82
277.317	244.1094	36.7	3258.82
277.318	246.1562	36.125	3258.81
277.318	248.5	35.625	3258.81
277.318	250.8906	35.15	3258.81
277.318	252.6094	34.775	3258.81
277.319	254.8594	34.425	3258.8
277.319	256.875	34.125	3258.8
277.319	258.9688	33.875	3258.8
277.319	261.0781	33.675	3258.8
277.32	265.3125	33.4	3258.83
277.32	266.8438	33.325	3258.83
277.321	268.875	33.3	3258.82
277.321	270.9531	33.35	3258.82
277.321	273.2969	33.375	3258.82
277.321	274.8438	33.45	3258.82
277.321	277.1406	33.575	3258.82
277.322	278.9844	33.775	3258.8
277.322	281.1719	34.0	3258.8
277.322	282.75	34.2	3258.8
277.323	285.2031	34.525	3258.79
277.323	288.7969	35.25	3258.83
277.323	290.6094	35.675	3258.83
277.324	293.0	36.15	3258.82
277.324	294.5156	36.725	3258.82
277.324	296.8906	37.325	3258.82
277.324	298.8125	38.025	3258.82
277.325	300.4688	38.75	3258.81
277.325	302.4844	39.525	3258.81
277.325	304.2656	40.375	3258.81
277.325	306.3125	41.35	3258.81
277.326	308.1562	42.275	3258.8
277.326	312.0781	45.5	3258.84
277.326	318.8438	0.0	3258.84
277.327	315.9688	47.55	3258.82
277.327	317.7188	49.525	3258.82
277.327	319.7344	51.425	3258.82
277.327	321.625	53.6	3258.82
277.328	323.4219	55.95	3258.81
277.328	325.375	58.675	3258.81
277.328	327.2344	61.675	3258.81
277.328	329.2344	65.2	3258.81
277.329	330.9062	69.4	3258.8
277.334	10.25	119.625	3258.78
277.334	12.2969	120.725	3258.78
277.334	14.2969	122.025	3258.78
277.335	23.0312	0.0	3258.77
277.335	17.6094	277.125	3258.77
277.335	19.5781	294.4	3258.77
277.335	21.6094	283.275	3258.77
277.336	23.6094	289.25	3258.76
277.336	25.5781	298.5	3258.76
277.336	27.625	305.1	3258.76
277.336	29.5781	310.25	3258.76
277.337	33.5781	347.35	3258.79
277.337	35.5156	335.4	3258.79
277.337	37.5781	344.45	3258.79
277.338	39.5781	353.0	3258.77
277.338	41.5156	369.175	3258.77
277.338	44.6406	0.0	3258.77
277.338	46.7812	86.175	3258.77
277.339	48.9375	80.825	3258.76
277.339	51.0781	73.775	3258.76
277.339	53.1875	69.45	3258.76
277.339	55.3906	0.0	3258.76
277.34	59.625	57.45	3258.79
277.34	61.6406	56.95	3258.79
277.34	63.6719	57.65	3258.79
277.341	65.625	58.6	3258.78
277.341	67.7656	59.05	3258.78
277.341	75.1875	0.0	3258.78
277.342	70.7344	94.375	3258.77
277.342	72.9062	86.725	3258.77
277.342	75.0938	79.45	3258.77
277.342	77.2344	75.475	3258.77
277.342	79.1094	76.4	3258.77
277.343	83.0781	80.175	3258.8
277.343	91.3906	0.0	3258.8
277.343	86.5156	139.575	3258.8
277.344	93.5	25.95	3258.78
277.344	97.4375	0.0	3258.78
277.344	99.4688	0.0	3258.78
277.345	100.1875	24.5	3258.77
277.345	102.2812	24.55	3258.77
277.345	104.5312	24.825	3258.77
277.345	105.6562	25.225	3258.77
277.346	107.0938	25.925	3258.76
277.346	113.5938	0.0	3258.8
277.346	115.5469	0.0	3258.8
277.347	117.5469	0.0	3258.79
277.347	112.5469	0.0	3258.79
277.347	114.6094	145.55	3258.79
277.347	116.75	134.925	3258.79
277.348	118.7969	126.175	3258.78
277.348	120.8594	118.7	3258.78
277.348	122.9844	111.875	3258.78
277.348	125.0938	106.15	3258.78
277.349	127.2031	100.775	3258.76
277.349	131.3125	91.825	3258.8
277.349	133.3281	88.475	3258.8
277.35	135.4688	85.425	3258.79
277.35	137.5469	82.8	3258.79
277.35	139.625	80.275	3258.79
277.35	141.7031	77.95	3258.79
277.351	143.75	75.95	3258.78
277.351	145.8438	74.1	3258.78
277.351	147.9375	67.1	3258.78
277.351	150.0625	68.125	3258.78
277.352	152.0	68.775	3258.77
277.352	156.1875	66.625	3258.81
277.352	158.0781	65.55	3258.81
277.353	160.0156	64.825	3258.8
277.353	162.1094	63.95	3258.8
277.353	164.2344	63.4	3258.8
277.354	166.3125	62.9	3258.78
277.354	168.1719	62.4	3258.78
277.354	175.8594	0.0	3258.78
277.354	172.2031	62.425	3258.78
277.354	174.2969	62.15	3258.78
277.355	176.2344	62.025	3258.77
277.355	180.4531	61.825	3258.81
277.356	182.5	61.825	3258.8
277.356	184.2812	61.975	3258.8
277.356	186.3906	62.2	3258.8
277.356	188.3594	62.5	3258.8
277.357	190.2656	62.8	3258.79
277.357	192.3438	63.2	3258.79
277.357	194.4531	63.75	3258.79
277.357	196.3125	64.25	3258.79
277.358	198.4219	65.125	3258.78
277.358	200.3438	65.8	3258.78
277.358	204.2188	67.675	3258.82
277.359	206.0938	68.7	3258.81
277.359	214.0469	0.0	3258.81
277.359	210.375	63.275	3258.81
277.359	212.5625	59.6	3258.81
277.36	214.5938	56.55	3258.79
277.36	216.8438	53.875	3258.79
277.36	218.8438	51.425	3258.79
277.36	221.2344	49.35	3258.79
277.361	223.1094	47.425	3258.78
277.361	225.3281	45.8	3258.78
277.361	229.5469	42.95	3258.82
277.362	231.5781	41.725	3258.81
277.362	233.6406	40.65	3258.81
277.362	236.1562	39.725	3258.81
277.363	238.0312	38.85	3258.8
277.363	240.0625	38.025	3258.8
277.363	242.0938	37.375	3258.8
277.363	244.5469	36.7	3258.8
277.363	246.3594	36.125	3258.8
277.364	248.25	35.65	3258.79
277.364	250.375	35.175	3258.79
277.365	254.5938	34.425	3258.81
277.365	256.5938	34.125	3258.81
277.365	258.6562	33.875	3258.81
277.365	260.7031	33.7	3258.81
277.366	262.9219	33.525	3258.8
277.366	264.8125	33.4	3258.8
277.366	267.0	33.325	3258.8
277.366	268.6406	33.325	3258.8
277.366	270.7812	33.325	3258.8
277.367	272.8906	33.375	3258.79
277.367	274.7656	33.45	3258.79
277.368	278.8906	33.775	3258.82
277.368	280.7188	34.0	3258.82
277.368	282.625	34.2	3258.82
277.368	284.6406	34.525	3258.82
277.369	286.8594	34.85	3258.81
277.369	288.9062	35.225	3258.81
277.369	290.5938	35.65	3258.81
277.369	292.7031	36.15	3258.81
277.37	294.4375	36.7	3258.8
277.37	296.4375	37.275	3258.8
277.37	298.6875	37.975	3258.8
277.371	302.3594	39.525	3258.82
277.371	304.4531	40.375	3258.82
277.371	306.2344	41.325	3258.82
277.371	308.0781	42.55	3258.82
277.372	314.7188	0.0	3258.81
277.372	311.8594	45.375	3258.81
277.372	313.9219	46.075	3258.81
277.372	316.0469	47.45	3258.81
277.373	317.6562	49.4	3258.8
277.373	319.625	51.325	3258.8
277.373	321.5	53.525	3258.8
277.374	325.25	58.55	3258.83
277.374	327.1094	61.65	3258.83
277.374	328.9531	65.2	3258.83
277.374	331.0	69.15	3258.83
277.375	332.75	73.625	3258.82
277.375	340.8438	0.0	3258.82
277.375	342.8438	0.0	3258.82
277.375	344.8594	0.0	3258.82
277.376	346.8438	0.0	3258.8
277.376	348.875	0.0	3258.8
277.376	343.5312	0.0	3258.8
277.381	17.5469	277.025	3258.78
277.381	19.5156	0.0	3258.78
277.381	21.5312	283.375	3258.78
277.381	23.5312	288.325	3258.78
277.382	25.4844	298.85	3258.77
277.382	27.5156	304.8	3258.77
277.382	29.5156	310.0	3258.77
277.382	31.5312	309.575	3258.77
277.383	33.4688	347.15	3258.76
277.383	35.5	335.325	3258.76
277.383	37.5	344.0	3258.76
277.384	41.4375	367.575	3258.79
277.384	44.6094	0.0	3258.79
277.384	46.7031	86.25	3258.79
277.384	48.8438	80.85	3258.79
277.385	51.0625	73.775	3258.78
277.385	53.1094	69.425	3258.78
277.385	55.4688	0.0	3258.78
277.385	57.6406	59.525	3258.78
277.386	59.625	57.4	3258.77
277.386	61.8281	56.95	3258.77
277.386	63.7656	57.65	3258.77
277.387	67.6719	59.05	3258.79
277.387	75.0938	0.0	3258.79
277.387	70.6719	94.775	3258.79
277.387	72.7812	87.0	3258.79
277.388	75.0625	79.625	3258.78
277.388	77.1094	75.45	3258.78
277.388	79.1406	76.375	3258.78
277.389	81.1094	78.525	3258.77
277.389	82.9531	80.15	3258.77
277.389	91.2969	0.0	3258.77
277.389	86.4688	139.475	3258.77
277.39	97.3906	0.0	3258.8
277.39	99.3906	0.0	3258.8
277.39	100.0312	24.5	3258.8
277.391	101.4219	24.55	3258.79
277.391	104.2812	24.825	3258.79
277.391	107.3281	25.2	3258.79
277.391	107.625	25.875	3258.79
277.392	108.8281	27.15	3258.77
277.392	113.5312	0.0	3258.77
277.392	115.4844	0.0	3258.77
277.392	117.5	0.0	3258.77
277.393	114.5938	145.525	3258.8
277.393	116.7188	135.4	3258.8
277.393	118.7969	126.575	3258.8
277.394	120.8594	118.725	3258.79
277.394	122.9219	111.875	3258.79
277.394	125.0625	106.1	3258.79
277.394	127.0625	100.975	3258.79
277.395	129.1719	96.625	3258.78
277.395	131.2812	92.025	3258.78
277.395	133.2812	88.475	3258.78
277.396	135.4219	85.6	3258.77
277.396	139.5469	80.35	3258.81
277.396	141.7188	78.0	3258.81
277.396	143.6719	75.95	3258.81
277.397	145.7969	74.1	3258.8
277.397	147.9844	67.05	3258.8
277.397	149.9219	68.45	3258.8
277.398	151.9219	68.875	3258.78
277.398	153.9531	67.625	3258.78
277.398	156.1406	66.625	3258.78
277.398	158.0781	65.55	3258.78
277.399	160.0469	64.85	3258.77
277.399	164.1094	63.425	3258.81
277.399	166.1719	62.9	3258.81
277.399	168.2812	62.4	3258.81
277.4	175.8594	0.0	3258.8
277.4	172.1562	62.4	3258.8
277.4	174.2812	62.15	3258.8
277.401	176.25	62.025	3258.79
277.401	178.2031	61.9	3258.79
277.401	180.1719	61.8	3258.79
277.401	182.2188	61.825	3258.79
277.402	184.3281	61.975	3258.78
277.402	188.3281	62.475	3258.82
277.402	190.4531	62.8	3258.82
277.403	192.2344	63.2	3258.8
277.403	194.4219	63.75	3258.8
277.403	196.3906	64.25	3258.8
277.403	198.4062	65.1	3258.8
277.404	200.2656	65.8	3258.79
277.404	202.2812	66.625	3258.79
277.404	204.1875	67.675	3258.79
277.404	206.25	68.7	3258.79
277.405	214.0	0.0	3258.78
277.405	212.6094	59.6	3258.82
277.405	214.7812	56.625	3258.82
277.406	216.7031	53.9	3258.81
277.406	218.9688	51.45	3258.81
277.406	221.1875	49.35	3258.81
277.406	223.125	47.55	3258.81
277.407	225.2969	45.8	3258.8
277.407	227.5469	44.3	3258.8
277.407	229.6562	43.025	3258.8
277.408	231.6094	41.725	3258.78
277.408	233.9219	40.65	3258.78
277.408	238.1406	38.85	3258.82
277.408	240.125	38.025	3258.82
277.409	242.4062	37.375	3258.81
277.409	244.4375	36.7	3258.81
277.409	246.5781	36.125	3258.81
277.41	248.1719	35.65	3258.8
277.41	250.6094	35.175	3258.8
277.41	252.8125	34.825	3258.8
277.41	254.5469	34.425	3258.8
277.411	256.5781	34.125	3258.79
277.411	258.5156	33.875	3258.79
277.411	263.0312	33.525	3258.83
277.412	265.1562	33.4	3258.82
277.412	267.0	33.325	3258.82
277.412	268.6094	33.325	3258.82
277.412	270.8594	33.325	3258.82
277.413	272.7812	33.375	3258.81
277.413	274.6719	33.45	3258.81
277.413	277.0156	33.575	3258.81
277.413	278.8438	33.775	3258.81
277.414	280.8438	34.0	3258.79
277.414	282.7344	34.2	3258.79
277.414	286.5938	34.85	3258.83
277.415	288.6875	35.225	3258.82
277.415	290.6719	35.675	3258.82
277.415	292.5469	36.15	3258.82
277.415	294.8594	36.7	3258.82
277.416	296.7812	37.275	3258.81
277.416	298.7031	38.0	3258.81
277.416	300.6719	38.7	3258.81
277.416	302.625	39.525	3258.81
277.417	304.1875	40.375	3258.8
277.417	306.2031	41.325	3258.8
277.417	314.7344	0.0	3258.84
277.418	312.0938	45.375	3258.83
277.418	313.9062	46.075	3258.83
277.418	315.9219	47.425	3258.83
277.419	317.8594	49.45	3258.81
277.419	319.75	51.325	3258.81
277.419	321.5469	53.6	3258.81
277.419	323.3906	55.95	3258.81
277.42	325.2812	58.675	3258.8
277.42	327.1406	61.675	3258.8
277.42	329.0625	65.2	3258.8
277.424	2.1875	118.7	3258.8
277.425	4.2188	118.85	3258.78
277.425	6.2031	119.4	3258.78
277.425	8.2812	118.825	3258.78
277.425	10.2812	119.65	3258.78
277.426	12.25	120.7	3258.77
277.426	14.2344	122.025	3258.77
277.426	23.0	0.0	3258.77
277.426	17.5781	276.925	3258.77
277.427	19.5781	294.275	3258.76
277.427	21.5938	283.3	3258.76
277.427	25.5938	298.425	3258.8
277.428	27.5781	305.05	3258.79
277.428	29.5781	310.225	3258.79
277.428	31.6094	0.0	3258.79
277.428	33.5625	347.125	3258.79
277.429	35.5312	335.4	3258.78
277.429	37.5469	344.425	3258.78
277.429	39.5469	353.075	3258.78
277.429	41.5312	369.3	3258.78
277.43	44.6406	0.0	3258.76
277.43	46.8906	85.675	3258.76
277.431	51.0938	73.375	3258.79
277.431	53.3281	68.7	3258.79
277.431	55.3906	0.0	3258.79
277.431	57.75	59.325	3258.79
277.432	59.5938	57.25	3258.78
277.432	61.8125	56.975	3258.78
277.432	63.8125	57.7	3258.78
277.432	65.8125	58.625	3258.78
277.432	67.6406	59.2	3258.78
277.433	75.1719	0.0	3258.77
277.433	70.7344	94.35	3258.77
277.434	75.0781	79.425	3258.8
277.434	77.2031	75.45	3258.8
277.434	79.0938	76.4	3258.8
277.434	81.1875	78.825	3258.8
277.435	83.1406	80.2	3258.78
277.435	91.4062	0.0	3258.78
277.435	86.4844	139.55	3258.78
277.435	93.4531	25.9	3258.78
277.436	97.4844	0.0	3258.77
277.436	99.5	0.0	3258.77
277.436	100.3281	24.5	3258.77
277.437	105.0625	24.825	3258.8
277.437	105.9844	25.225	3258.8
277.437	108.3281	25.925	3258.8
277.437	109.3125	27.15	3258.8
277.438	113.6406	0.0	3258.79
277.438	115.5781	0.0	3258.79
277.438	117.5781	0.0	3258.79
277.438	112.6094	0.0	3258.79
277.439	114.6875	144.625	3258.78
277.439	116.7812	134.725	3258.78
277.439	118.8594	125.925	3258.78
277.44	123.0312	111.8	3258.81
277.44	125.1719	105.55	3258.81
277.44	127.25	100.575	3258.81
277.441	129.3125	96.3	3258.79
277.441	131.2812	92.05	3258.79
277.441	133.4531	88.45	3258.79
277.441	135.4844	85.3	3258.79
277.441	137.5625	82.675	3258.79
277.442	139.5938	80.275	3258.78
277.442	141.6406	77.975	3258.78
277.442	143.8281	75.95	3258.78
277.443	148.0781	67.125	3258.81
277.443	150.0469	0.0	3258.81
277.443	151.9844	68.8	3258.81
277.444	154.2031	67.625	3258.8
277.444	156.1562	66.575	3258.8
277.444	158.1562	65.525	3258.8
277.444	160.2656	64.825	3258.8
277.445	162.2812	63.925	3258.79
277.445	164.3438	63.4	3258.79
277.445	166.2344	62.85	3258.79
277.445	168.3906	62.4	3258.79
277.446	172.2656	62.4	3258.81
277.446	174.4375	62.125	3258.81
277.446	176.3438	61.975	3258.81
277.447	178.4219	61.925	3258.8
277.447	180.3438	61.825	3258.8
277.447	182.4219	61.8	3258.8
277.447	184.5156	61.95	3258.8
277.448	186.5781	62.2	3258.79
277.448	188.5781	62.5	3258.79
277.448	190.4375	62.8	3258.79
277.448	192.4219	63.275	3258.79
277.449	196.5469	64.3	3258.82
277.449	198.4375	65.125	3258.82
277.449	200.4844	65.8	3258.82
277.45	202.3906	66.725	3258.81
277.45	204.2812	67.75	3258.81
277.45	206.2031	68.7	3258.81
277.45	214.125	0.0	3258.81
277.451	210.5312	63.05	3258.8
277.451	212.6562	59.5	3258.8
277.451	214.7344	56.45	3258.8
277.452	216.7812	53.775	3258.78
277.452	221.1562	49.325	3258.82
277.452	223.3438	47.275	3258.82
277.453	225.4219	45.675	3258.81
277.453	227.5156	44.2	3258.81
277.453	229.7812	42.95	3258.81
277.453	231.8906	41.65	3258.81
277.453	233.9219	40.625	3258.81
277.454	235.9062	39.625	3258.8
277.454	237.9688	38.775	3258.8
277.454	240.1562	38.0	3258.8
277.455	242.5469	37.325	3258.79
277.455	246.4219	36.1	3258.83
277.455	248.2656	35.6	3258.83
277.456	250.3438	35.15	3258.82
277.456	252.5625	34.775	3258.82
277.456	255.0625	34.4	3258.82
277.456	257.1562	34.125	3258.82
277.457	259.2031	33.875	3258.8
277.457	260.9844	33.675	3258.8
277.457	262.9219	33.5	3258.8
277.457	264.75	33.4	3258.8
277.458	267.0938	33.3	3258.79
277.458	270.875	33.35	3258.83
277.458	273.0625	33.375	3258.83
277.459	275.0625	33.475	3258.82
277.459	277.4219	33.6	3258.82
277.459	279.2344	33.775	3258.82
277.459	280.8594	34.0	3258.82
277.46	282.9062	34.25	3258.81
277.46	285.2344	34.55	3258.81
277.46	287.0156	34.875	3258.81
277.461	289.1719	35.25	3258.8
277.461	290.7656	35.7	3258.8
277.461	294.8594	36.75	3258.84
277.461	296.6094	37.325	3258.84
277.462	298.5	38.025	3258.82
277.462	300.7656	38.75	3258.82
277.462	302.5156	39.575	3258.82
277.462	304.4062	40.5	3258.82
277.463	306.6094	41.425	3258.81
277.463	308.2812	42.525	3258.81
277.463	314.8906	0.0	3258.81
277.464	312.1562	0.0	3258.8
277.464	318.9375	0.0	3258.8
277.464	318.1094	49.5	3258.84
277.464	319.9062	51.425	3258.84
277.465	321.875	53.7	3258.83
277.465	323.5156	56.15	3258.83
277.465	325.4531	58.875	3258.83
277.466	327.2812	62.125	3258.82
277.466	329.1719	65.375	3258.82
277.466	331.0625	69.725	3258.82
277.466	333.1094	73.95	3258.82
277.467	341.0312	0.0	3258.81
277.467	343.0469	0.0	3258.81
277.472	17.7812	277.35	3258.79
277.473	19.7188	293.075	3258.77
277.473	21.7656	283.1	3258.77
277.473	23.75	289.4	3258.77
277.473	25.7344	298.05	3258.77
277.474	27.7344	305.35	3258.76
277.474	29.7344	311.125	3258.76
277.474	31.7656	308.15	3258.76
277.474	33.7031	346.025	3258.76
277.474	35.7031	335.875	3258.76
277.475	37.7031	344.975	3258.75
277.475	41.6719	370.55	3258.79
277.476	44.8125	0.0	3258.78
277.476	47.0156	0.0	3258.78
277.476	49.2969	0.0	3258.78
277.476	51.375	72.8	3258.78
277.477	53.4844	0.0	3258.77
277.477	55.8125	0.0	3258.77
277.477	57.8281	59.125	3258.77
277.477	59.8281	57.2	3258.77
277.478	61.8125	56.95	3258.76
277.478	64.0	57.725	3258.76
277.478	67.9062	59.375	3258.8
277.479	75.4219	0.0	3258.78
277.479	70.9531	93.25	3258.78
277.479	73.1719	86.275	3258.78
277.479	75.3438	78.625	3258.78
277.48	77.3438	75.275	3258.77
277.48	79.3438	76.575	3258.77
277.48	81.2188	79.05	3258.77
277.48	83.2188	80.575	3258.77
277.481	91.5781	0.0	3258.76
277.481	93.5938	0.0	3258.76
277.481	97.6406	0.0	3258.8
277.482	99.6406	0.0	3258.79
277.482	101.5312	24.5	3258.79
277.482	103.1406	24.55	3258.79
277.482	103.5938	24.85	3258.79
277.483	107.1719	25.275	3258.78
277.483	107.5469	26.0	3258.78
277.483	111.7812	0.0	3258.78
277.483	113.7969	0.0	3258.78
277.484	115.75	0.0	3258.76
277.484	117.7656	0.0	3258.76
277.485	114.875	144.2	3258.79
277.485	116.9375	133.775	3258.79
277.485	119.0781	125.3	3258.79
277.485	121.1406	117.95	3258.79
277.486	123.2656	111.25	3258.78
277.486	125.3281	105.3	3258.78
277.486	127.3594	100.225	3258.78
277.486	129.375	95.7	3258.78
277.486	131.4688	91.625	3258.78
277.487	133.5625	88.125	3258.77
277.487	135.7188	85.15	3258.77
277.488	139.8594	79.875	3258.8
277.488	141.8281	77.75	3258.8
277.488	144.0156	75.725	3258.8
277.488	145.9531	73.95	3258.8
277.489	148.2344	67.55	3258.78
277.489	150.0469	0.0	3258.78
277.489	152.2656	68.725	3258.78
277.489	154.375	67.525	3258.78
277.49	156.2344	66.45	3258.77
277.49	158.2969	65.475	3258.77
277.49	160.3281	64.75	3258.77
277.491	164.4219	63.375	3258.8
277.491	166.3594	62.75	3258.8
277.491	168.4531	62.35	3258.8
277.491	176.1406	0.0	3258.8
277.492	172.4375	62.375	3258.79
277.492	174.3906	62.15	3258.79
277.492	176.5938	61.975	3258.79
277.492	178.4688	61.85	3258.79
277.493	180.5156	61.825	3258.78
277.493	182.6094	61.825	3258.78
277.493	184.5938	61.975	3258.78
277.494	188.5625	62.525	3258.81
277.494	190.7031	62.8	3258.81
277.494	192.6094	63.3	3258.81
277.494	194.7188	63.85	3258.81
277.495	196.6875	64.325	3258.79
277.495	198.625	65.175	3258.79
277.495	200.5	65.925	3258.79
277.495	202.6094	66.75	3258.79
277.496	204.5469	67.85	3258.78
277.496	206.4375	68.825	3258.78
277.496	208.6406	0.0	3258.78
277.497	212.7344	59.15	3258.81
277.497	215.0312	56.225	3258.81
277.497	217.25	53.575	3258.81
277.498	219.3438	51.2	3258.8
277.498	221.375	49.075	3258.8
277.498	223.3594	47.2	3258.8
277.498	225.75	45.55	3258.8
277.499	227.6562	44.125	3258.79
277.499	229.9531	42.775	3258.79
277.499	232.2031	41.6	3258.79
277.499	234.1406	40.575	3258.79
277.5	238.2344	38.725	3258.81
277.5	240.4062	37.95	3258.81
